ply
format ascii 1.0
element vertex 724
property float x
property float y
property float z
property uchar red
property uchar green
property uchar blue
end_header
2.4359146803249985 7.344418416866382 -8.327532633656343 162 94 50
6.6604878011709845 3.178953915413489 -8.011398254109046 107 53 29
6.769098226752306 5.736915527632539 -6.026326255745873 104 91 74
6.741468915790208 7.947821066737227 -4.8883150311678465 192 181 166
5.09991900547967 4.527214018064673 -8.247728908618978 146 84 47
8.89338405500061 4.514490504578821 -6.410612511352878 91 42 5
6.991968948818647 4.4978141037102395 -7.283850766770896 206 216 228
2.65050005966519 8.89699612867078 -7.606527314256555 193 135 72
6.46148800728195 5.461784834373522 -6.549784073824422 107 108 109
8.77190684012428 6.870007736420403 -4.535325407529123 45 36 28
1.8637059515774435 6.8780114521612195 -8.809508619812886 209 176 129
5.176506972705345 4.507081138388247 -7.231417913552945 189 199 209
8.654216099355585 6.378243587625143 -2.501288328471391 54 59 39
4.131924368381974 8.220833346856814 -5.945478991773105 156 151 146
2.783777864253731 8.280804890561942 -7.776582894154595 145 78 32
5.097757845411342 7.081093595711596 -6.190528483446284 25 37 61
0.7670656196603802 9.767431180612192 -8.107167209077014 199 131 62
5.9234805873105545 4.016906289236541 -8.041363278189182 143 84 34
5.643864413140092 4.41817395821066 -7.980129338145296 184 134 84
8.374973717861867 5.971128750498855 -5.394224524525551 181 198 214
2.246999108814481 6.254809026504703 -8.930886750319711 182 133 92
3.467673380062892 9.1414781150276 -6.84388832707669 56 62 47
7.43100689703857 5.914486373379068 -5.851836432468311 145 139 137
2.133866907529491 8.81479454661984 -7.88864534704555 213 149 91
1.7526436258795044 8.879122740378197 -8.022624559649154 211 155 85
4.338541784158803 15.94938655641214 -3.7489300494604776 158 92 35
8.107173081247737 6.121130995586568 -3.3844240234371625 109 110 113
2.8891386494815383 9.246151539450622 -7.305773033834023 183 105 48
3.6262743071460544 8.936871715215236 -6.965034760148847 45 58 52
5.793179840497069 8.653286619699903 -5.903716310082021 29 24 32
7.824716236021449 4.554391038176708 -6.118377098418743 192 207 222
2.523624860040616 8.672020930287552 -7.7551379778244565 77 51 46
3.750929239017224 6.352603242437261 -7.472798200869257 39 77 97
8.321081365398014 4.532428398612478 -6.550095642778591 62 31 15
1.496563496290705 7.473458474225053 -8.752392969200361 209 158 101
3.960367362425573 3.639203665493667 -9.356144243984067 91 57 39
6.959354285964403 4.326558696051478 -7.373150376645604 101 44 14
2.228247541811423 5.53398681083878 -9.270654739381607 135 68 34
2.563601390039666 8.150266355244781 -8.11179703908502 138 75 42
6.123278481407212 4.797525508293927 -7.211019261536874 182 200 219
4.072485286301062 6.740148606465258 -7.010416751981558 216 233 249
7.951658412231139 6.618594919747487 -2.299375486351055 155 157 143
8.992008307141901 4.676295582451287 -6.211861563294405 96 43 9
10.762337898865761 4.102314228548296 -5.492731093082386 153 93 39
11.352128297894875 5.91155455420326 -4.435440620674274 143 86 40
2.5782930939416957 5.481784188165482 -9.060656121313153 127 74 54
6.337002938520073 2.3837672936953 -8.583582433025297 132 92 81
5.673106671763864 4.848758392856578 -6.751789211641281 146 166 183
5.656829229644858 8.288058388230834 -2.0963796579630647 109 57 25
4.684597851208536 4.441824208593785 -8.479648666371881 190 148 98
7.6599188130143485 2.438489503442101 -7.773391039225478 130 75 48
4.2424212914473145 6.506756170107975 -6.361020741865986 40 69 86
1.3073189456307504 4.811308533491197 -10.121712570712766 43 25 10
5.740952732127127 4.02163383519686 -8.121433594361049 153 96 46
6.886071759739079 3.51601368458288 -7.7552962931319716 164 126 107
2.6899758160175304 6.919186120323884 -8.423966290503486 73 54 45
3.3455898347546187 4.11561402080849 -9.294728501789619 163 107 51
3.1607697368575542 4.624051828770649 -9.166708010319836 196 166 126
3.6847673149056073 7.044443579040306 -7.115976784715143 25 45 57
6.313846135582046 5.45388832859979 -5.7874151662312165 193 187 179
6.563251893932902 6.00261775952741 -5.776195400595157 180 193 204
10.53785275334325 5.7520475524029715 -4.931726311704146 121 70 33
4.8073174325903425 4.98831066362089 -7.600632742313594 100 99 103
5.953713143803122 6.400190147650208 -6.404607552839047 141 156 172
2.4406887323415196 5.336716397309578 -9.25172322212487 142 80 43
4.853101594096488 4.957501421142461 -8.092422310036017 56 35 32
5.428903762550333 8.069467190825696 -1.746356012769493 110 50 14
2.1505862409047234 4.289887922246698 -9.536865419690534 146 102 82
5.877715604537459 3.997822530937875 -8.067578017143882 144 82 27
2.860660010620127 5.783203472450783 -8.861102712652713 192 157 105
1.5013004274248605 7.718821673266042 -8.669178523088856 177 119 63
4.3927802378578615 6.3121856398851355 -7.286872516907742 105 107 116
3.106327968877959 6.7119031619260525 -7.160371083393086 38 65 84
6.739335097415456 7.818943220510894 -2.92144176605809 161 168 166
8.260439384432779 5.698382472319218 -5.437902586811236 193 210 228
1.2926403361471828 8.18051494531627 -8.545384780736919 184 123 66
2.181891980808963 8.248369545116216 -8.108254880534508 143 74 27
5.460707810892927 6.348060329223446 -4.942100324218058 81 114 118
8.668214535385074 3.481869213943054 -6.81007812912106 170 113 47
4.527649374027939 7.795683916816888 -0.8841488263871567 171 175 169
7.942700856801391 5.811302344706839 -2.8756938576489572 24 32 18
4.6424420634150145 4.819877089030032 -8.342564370983158 160 110 62
7.188338891759796 8.738895800698636 -4.25905419927679 118 118 116
6.0908207016753195 2.843651104460223 -8.469324625151069 122 58 10
3.3133086223896395 8.342312757366939 -7.441545930321752 114 97 107
2.4595162890373685 7.895975661590095 -8.081652632204506 191 127 76
6.660790104355057 4.1388129550330595 -7.584708319763327 166 113 58
3.75595651111276 10.548589922444831 -6.310936767622458 177 121 64
7.042328833788561 4.333817995451579 -7.313572467315488 137 88 48
10.577490324360896 2.935484153478505 -6.002357217838601 154 95 40
2.4225379919450125 6.55025281866251 -8.735896845371975 194 149 103
3.8887408292571166 5.036193160249391 -8.633791527408185 132 69 35
6.1835763182467245 5.575991676976544 -6.037482922579471 180 174 171
1.9964172792262957 5.810725482621505 -9.284439089771 173 134 87
7.6914028036583435 3.0389653292777052 -7.515898748661402 131 71 15
0.26118321563528585 7.3660014263226445 -9.100598935121212 169 113 79
2.0104859746792214 6.763412771494615 -8.74401650175937 198 153 108
11.314435586078208 4.602588387060564 -5.015591533255131 149 94 35
2.3100320928474116 7.794699830683739 -8.25303930774321 170 94 54
2.1038725618038745 14.719254902735218 -5.224791143536212 178 125 76
4.613505515417288 4.649996583618875 -8.421408404803875 179 132 79
1.4906055570329373 12.145272234151573 -6.767664363877866 177 100 25
2.0428355084210517 6.23290249423313 -9.114683987967165 179 130 78
1.1108084718200404 5.997974999696408 -9.59344722897264 195 154 102
3.834093699272449 4.707659318258003 -8.806541058041457 197 164 125
8.713707406594468 2.192029915347877 -7.249189925867089 125 54 0
3.3673100844280213 6.450743857572679 -8.330404091326454 170 117 68
5.029917307410467 8.018188577616451 -1.84420441749864 87 78 65
8.3301181224384 2.915182738371433 -7.244501594742256 127 63 13
7.819933517251094 6.544404023732822 -2.715685790142917 134 146 145
3.4239922002582466 6.68296850917277 -7.194851066168516 181 203 220
2.877902330257376 8.668876735948153 -7.518415920555357 166 86 32
7.567624744402859 4.771824664289939 -6.168065732868025 182 197 210
2.450071398103388 7.421956431521216 -1.9444177557034765 188 192 191
7.239531865246965 3.3244109251068625 -7.638439473249109 133 72 34
6.3047701916886005 5.870679307316432 -6.235689136167471 160 158 150
6.147003071148461 4.982140418062965 -6.907146765342229 196 209 224
7.080030599701231 3.7362816129062058 -7.547895250491489 124 68 23
11.291311366026664 4.531744655981281 -5.066118255823673 137 80 19
2.8951991406801985 6.471385759711041 -8.556939522761787 222 187 116
3.4896037486386096 6.856993786250436 -7.364872018068271 206 221 239
1.9569640422994277 7.875428615609634 -8.385857223067188 135 62 15
1.6517155337343223 6.594411903540867 -9.066874911491187 180 143 102
2.8866979176764076 7.80864404458495 -7.948097413763494 224 187 127
5.046203069869424 4.643681167899283 -7.331821222741379 38 89 114
7.596124020974468 4.978359072971066 -6.172059604656809 98 97 103
7.8671591005950745 4.48672382077073 -6.25766564203198 196 210 225
6.324029863600484 3.228138886471216 -8.170269910373554 107 40 3
4.348411511801146 6.5109424024286175 -6.77278163641157 206 205 201
8.92928141952054 5.566696371938165 -5.281755429369637 99 96 91
3.573046090121766 8.958909095129998 -6.921372109943071 40 51 41
5.41296431266944 4.736555022077549 -7.199095472880051 37 60 72
2.8749005750391468 4.96466644231577 -9.127311878934066 38 17 7
2.2158716830510916 5.938245097055832 -9.02507788458255 159 107 70
2.998762532581653 5.448908976505184 -8.885096248743107 136 84 41
4.201710299740433 4.6521125817151905 -8.638136685457571 179 130 82
1.167623340116969 8.1794436499341 -8.589816163426224 200 137 79
6.656008891272466 4.6438010416216455 -7.330752143446132 200 216 236
5.913190142734433 4.677797172852149 -7.763386717342354 123 63 26
7.194749331708893 4.411044533166942 -6.690463452630099 198 215 229
8.690045082945145 2.6969276024952404 -7.127160827327647 164 107 39
2.4391989145206967 9.43808990810328 -7.453596680380578 98 66 46
6.0723292816103305 5.932432503536138 -4.871430841886795 145 173 177
4.197096340491565 6.196348782891053 -7.505068992143718 196 213 231
4.323784582795097 5.913662384825226 -7.465389661671432 108 141 148
7.984702222970345 3.079855138915901 -7.3454243158022745 176 116 54
1.133215314401408 5.412527244351884 -9.529620510241362 255 255 255
5.586313996614639 6.090107326277786 -6.650472036720826 147 137 129
7.39924012835763 5.781458826496653 -5.7744749542984 202 197 188
6.165081206766797 6.631252429527647 -6.007362686503718 35 45 80
7.644992846547052 6.14140390807209 -5.294223969718975 175 191 213
5.021291962529342 4.162256745179005 -8.436742166808875 168 112 62
7.445735140109128 4.299842966800304 -6.488224806412602 36 46 45
6.593542337437141 5.666517830854689 -6.317345621066463 174 166 161
3.81821580917431 9.70166263534218 -6.424285946757729 45 56 53
1.819483144904226 8.48451992894603 -8.196840992235378 204 146 77
2.262877305779769 5.348520788176936 -9.35015838177644 130 73 47
3.7176679293369923 5.515499770635592 -8.511569693871964 190 144 99
-0.8272263893921257 10.189921045166859 -8.715553997508627 196 130 58
4.2564350990085895 3.569379567673121 -9.054289296538828 165 111 68
6.641602820748479 4.693787446633037 -6.952083337112388 118 121 129
8.194526203298306 6.524434604008709 -2.378963215797038 45 56 37
3.9407824443391193 6.030517121887298 -7.9452512748621595 84 52 51
0.722718404278253 8.172606064264317 -8.830236844067844 198 138 75
5.669972845585483 6.362549504189803 -5.751228098861035 111 130 139
3.563374869310071 6.821743970847236 -7.827475658414772 183 204 226
1.3052592656817816 8.722168567594764 -8.268962559847411 206 148 81
3.281622527767927 6.574476137727238 -7.143164132462063 36 54 70
9.039441018121307 6.117873844215901 -3.616596402651135 57 48 39
8.72493710432464 5.160116995276856 -4.228414538196373 100 102 101
7.0776312378762425 3.5535495486854662 -7.635084195961605 175 128 77
1.5946873411890463 8.064673197976251 -8.458112029745216 155 86 40
5.673106671763864 4.848758392856578 -6.751789211641281 146 166 183
3.22689850589615 5.151706433176939 -8.888904306093954 91 44 11
3.4853306836353837 6.870356170806533 -7.171217900391402 69 88 103
2.1214877622620016 5.050086536761165 -9.53116374811418 131 76 56
3.851655272359868 5.888891148906313 -8.258019155617397 143 90 60
7.886647100425751 4.486630857261946 -6.125921152361073 60 85 128
6.980269381318692 5.470627189518775 -6.053348475823527 91 93 98
0.18768533232116594 6.881784047557519 -9.528713159646607 168 110 59
3.4845095428199464 4.861019843173459 -8.799365719619697 198 157 110
3.6461477085117675 5.943444945790486 -8.391522742558768 107 52 29
7.646022629170564 4.007066801068775 -7.1875673240322895 152 95 40
7.781136599843627 5.480119983299606 -5.868632753438189 191 204 219
2.5450474874197293 9.620085367820113 -7.287539382418441 164 95 26
7.225113848773726 4.571156044653821 -6.56062835266365 194 184 170
6.977865664482694 5.813644576234229 -5.980190851135855 195 188 177
8.083718448311155 5.580971499382007 -5.663482805969991 116 112 108
3.0143145158087448 4.592277462963423 -9.135696253744005 193 149 89
5.092454777641724 7.676875097815747 -6.704945014159045 217 218 227
3.9271614964485666 10.287034222303129 -6.817259992581003 39 44 39
6.666269856062407 5.284389499008024 -6.41396204435998 47 72 74
3.011344249214352 10.557025056737945 -6.620550539223148 83 27 3
5.196149594528913 4.63153931041476 -8.154771073519324 126 63 26
6.612156309386108 5.238435908600343 -6.328636682005973 160 164 167
6.66973632327454 4.493115484538745 -7.422402068884051 137 85 45
4.599882912039246 4.682375952747716 -8.417997097377645 75 38 23
18.781317993172014 22.020111331895194 6.7231944528954255 129 119 125
0.14156456651646065 10.741833729517976 -7.98239548469566 174 102 49
2.17050044228323 6.473919135675158 -8.825986810339717 159 100 61
6.3330797382066155 5.341750456262049 -6.679699682822109 153 161 171
2.9685272223556214 11.210760001500105 -6.422066051473638 200 129 57
3.129664815464373 5.1194379200441515 -8.974014221875573 206 174 127
8.90601518784035 3.147632743414459 -6.835206667892141 129 64 6
5.696528391041198 4.158747725885355 -8.095499318947931 179 135 84
0.3182899938710403 9.788726966908653 -8.326871422755211 146 81 49
3.991193835841871 6.92712981044362 -7.302923402985694 213 233 250
0.9736455320806771 7.127733586471552 -9.141542013351716 179 125 64
3.6356323770223393 4.506052386458675 -9.003264699239097 152 101 71
7.9705637772937585 4.453687820415859 -6.407478630608379 196 209 218
6.5631034861778135 5.434068638004414 -6.2458540930464395 81 117 136
9.364046602925141 6.33787155924369 -4.350593605655182 115 115 117
3.2198577253354785 6.034257769804587 -8.539141653296799 93 48 25
4.5923194708295645 5.194245476966681 -7.582491707157948 210 226 244
2.775708814653818 5.609760675007498 -8.901583318469287 142 96 68
0.9182379292809196 7.819846135828596 -8.862295253737596 127 66 25
2.670525646141813 8.914109266904688 -7.576766091472306 158 78 16
5.883599457926292 3.4570601630875917 -8.300354220064161 116 54 14
2.651743570705435 7.391378911353146 -8.250115525892518 121 101 93
7.508636045909174 5.764439618011141 -5.54842074609628 28 54 93
1.991180895959697 5.156718506620929 -9.399217329876066 255 254 255
3.66324074533099 7.075664482144839 -7.264333691283774 198 215 239
5.109273932547192 6.028704786086543 -6.988842732157596 164 169 177
6.447923494427858 3.8113057510950186 -7.876387253439452 166 117 62
7.838498317180451 4.5536670915223745 -6.097278205057774 200 212 227
6.666912847952651 5.24547334070938 -6.444088011584118 208 223 239
8.657106365345589 6.343462341826016 -2.5352467082664893 157 159 147
0.3450177476223722 9.220243638144195 -8.515071449245875 101 39 10
6.2180370059776715 4.945882281256877 -6.878058111393348 60 95 110
7.704974124284521 4.06430574719838 -7.046956217591944 209 211 219
5.459533103233373 4.987089632207659 -6.226295625946785 205 200 196
4.65511902585818 8.37476906827633 -6.525877739700904 223 236 252
4.844286629352884 4.754799215628862 -7.3871514251063175 184 193 208
7.371686146939696 5.16967397396249 -6.077806853821835 173 161 137
7.033173793905421 4.406329198871363 -7.324818395647058 113 62 40
3.848461188208729 4.821870726613703 -8.701256924243703 172 118 59
2.349748513287045 9.797905916031564 -7.415189073818715 182 101 48
7.983284990109034 4.403456033035396 -5.980074268800107 200 217 236
0.9646396735549344 8.063667641764763 -8.716352128664722 159 89 37
0.6837475950422437 9.812045315709652 -8.134405792950227 161 82 28
8.391425705972015 8.862869308148074 -4.477529827141794 47 43 34
6.536647100108215 5.090037738881698 -6.7138609079689555 199 216 230
5.137247288898249 7.515236762249138 -6.2744139801020635 184 200 223
0.9338583107842057 8.667189695438907 -8.553361844286432 139 68 17
1.7761792575757887 6.7731188359324355 -8.953288457938642 126 68 41
1.691099033266684 11.567532008490149 -6.873943317106922 190 108 45
-0.3859585511880481 9.973764057739425 -8.645825657744654 193 126 55
6.1395805143542574 4.831170831723339 -7.248429143509356 27 25 18
1.002833736886318 7.450165520561015 -9.00531945761552 217 184 137
6.0684402482423465 3.3310767513594186 -8.250218768252847 132 79 51
0.8783462074415818 7.94112728745652 -8.876845998350815 205 154 82
8.308950683696237 2.554984063752828 -7.380021444998701 131 69 32
4.702568415633705 7.73346833958842 -0.9875899060312447 119 111 106
2.626743964002686 5.161891517853973 -9.254395274265327 183 138 101
6.061025034115141 4.8281099446458455 -7.202352711902597 50 57 79
2.915254004740291 5.439066069419936 -8.929101893470254 147 98 58
0.3273673251654103 8.979916703662303 -8.70591770503755 121 56 23
2.2635971475198144 9.175456470830476 -7.660069620030574 203 132 71
4.435512372784736 5.252667069474486 -7.505627570867292 31 90 121
6.548738807172011 5.442132423794108 -6.567088095370282 206 222 238
3.2648568523497308 7.697914383103394 -3.780488419368461 75 63 56
1.9277139662363523 7.745371541462003 -8.426096355168546 209 156 92
7.320515750001247 9.088987962819608 -2.125154142390071 106 99 83
4.313974670225793 5.085872311553588 -8.402889260439009 150 91 57
3.106021554467487 7.172379331306868 -8.007193351804407 150 98 66
6.585468952075075 5.369810664002934 -6.219437093350827 66 75 81
8.257579227687888 4.8940750289822725 -3.162812971531376 158 153 140
3.275225629880942 4.806291968032599 -8.981674445374688 171 132 81
5.84064397635002 3.5180380472621806 -8.26955724623594 174 132 87
4.070412950012186 5.1480254466801 -8.279487340969874 125 81 40
8.49022303944789 2.7082135203564164 -7.235446019419519 169 120 70
1.8357411596105198 10.56348203193121 -7.283480727490821 133 57 12
3.930200034179632 4.160774843829393 -9.006240543102383 192 153 102
2.2027245281457284 12.513452551260075 -6.2790000740476675 193 118 50
2.538584647768483 4.882996006770842 -9.531537054389577 163 119 90
2.6710178252022825 7.122618785223337 -8.390560232756696 173 117 81
9.16410019319531 7.27202317549117 -4.852892432457922 113 122 133
3.00595866057718 5.236561584333684 -8.924365989600323 188 154 106
5.343787657153052 5.277250506103019 -7.258733811719532 44 63 61
0.24677355198686304 8.7467415688813 -8.659750146816013 112 51 25
3.2534967832279293 4.699419311709814 -9.06928888539882 160 106 67
2.504408563680743 5.809421142602666 -9.017201154132877 179 139 104
5.597079396313755 8.419316918004029 -5.9328157641051975 202 192 182
2.4710451807355596 5.583337425977333 -9.023607076534997 188 154 118
2.8436169888313856 6.132386458063907 -8.678279295653425 205 169 116
2.6699021892984307 6.746334822798706 -8.470203950047022 172 122 86
7.7620858442239555 5.132696244588543 -5.988306566419904 130 116 107
2.2118619656804315 6.862857586398918 -8.636736372107555 183 132 83
8.067855646143238 4.4255929736597475 -6.381936218325433 51 27 19
3.6699485221999963 4.88340330372096 -8.790336042007972 163 105 56
3.101936509418659 7.21482714508437 -8.027969037524121 145 84 47
5.85159121764864 3.0738224565557384 -8.524816135104183 127 63 17
4.230400432701015 5.0849209534277025 -8.432734515962999 133 79 42
8.520842703108283 3.1776642029875033 -7.025713347920092 137 72 6
0.6125012191253442 9.11432279803848 -8.491720217150123 197 133 66
8.509101320915523 4.970939653648153 -5.7010715551853455 186 170 142
2.4112249459800736 5.691833019209052 -9.117437245616268 192 145 104
7.4840148954273955 3.4054174929747436 -7.467236919347399 166 106 44
3.189707344683551 8.179610480110133 -7.467340062712924 168 163 169
2.613762675947197 7.401149692824218 -2.3808624232886335 87 77 58
4.664562075759725 3.946384145176015 -8.697873757469026 82 43 23
1.765889514368853 5.856120230281098 -9.358861671707798 181 134 88
7.518571407521262 5.1262002838418566 -5.916774314181564 193 181 168
8.104260330285769 3.6111475559709656 -7.071742676677508 167 113 48
2.2791293709975515 8.315739906039967 -8.036439680366842 202 137 68
10.726082793486643 4.987216547443603 -5.1119228869746145 111 55 15
1.0490238972992982 6.822210553408408 -9.188473897410253 206 179 147
2.590494104354734 8.046761772835774 -8.04095614007114 199 144 88
2.944983699778484 6.35925196380146 -8.569822873917227 175 125 75
7.05057772451971 3.488000889534224 -7.648529867508075 120 54 7
0.8890499940528902 7.1181392497497 -9.175779066086227 174 117 87
8.345026412692336 6.448481414614126 -2.5632596653942854 115 117 108
3.001542979787124 5.395276798137481 -8.906652139614316 137 91 51
0.645772112811665 9.326388846428657 -8.343305344536963 161 84 29
4.281749478452197 6.3929302271742525 -7.135359543594431 215 226 243
7.797683369602816 6.364255144821186 -2.8123869957941263 153 156 143
5.118425239573736 7.7313060393072925 -5.868062716814228 228 229 228
10.602143108172033 4.999119795254964 -5.1855384843330965 121 61 14
5.443757448725722 3.5026986787280108 -8.51475385121587 147 88 47
5.417917942912352 5.039329203876702 -5.806804962896395 20 48 65
7.427135828550639 2.5814093035584222 -7.875418473922314 169 106 52
3.911122067217259 4.02227782829835 -8.994502157337298 151 100 63
5.973376196459035 4.01114871704628 -7.995318028376709 144 80 28
1.6123778292051194 10.416931564004617 -7.438011513505218 178 93 26
3.8822887021042902 10.536184021649056 -6.258620355703652 148 70 20
6.306853783879793 4.982967139305152 -6.832900054098584 38 85 108
2.519436187127463 9.06402879383283 -7.56544707254137 216 170 91
1.876817315241533 7.2267886838372615 -8.599166899775405 214 171 114
7.7123402868793445 4.169105706271403 -6.5643125074883235 195 196 200
1.5809362626798074 7.491633079446202 -8.716098093505463 133 64 26
8.240830463591394 4.551003698545869 -6.174846785057363 198 212 226
7.66835288081881 5.012429460030315 -6.220421008893559 193 203 213
3.7428232835558433 7.116668351234616 -7.20805818256298 130 149 160
1.0577698569552503 7.561943243760396 -8.942261372361877 156 93 47
3.3294148876080008 6.593101553702677 -7.225177693666093 33 68 89
7.671423066983901 4.023511668917123 -7.196814264308907 137 80 35
6.627139736025032 5.68216064008478 -6.224760673359019 147 138 130
3.729532843774198 5.267434755981285 -8.621140902992869 175 136 94
4.183889900383344 9.187779995189755 -0.6775673053316698 114 59 29
7.275716298139432 7.174441870029722 -2.703253075305127 49 52 38
1.562405290955951 8.032077447415437 -8.500312410316285 133 65 16
4.710623650083202 7.755457730337315 -1.145804644028873 134 129 126
7.007456409633462 3.509798698793966 -7.687156422454241 115 60 24
9.228871150372758 4.140943959826584 -6.285287373232554 169 122 72
4.089816744201598 9.229519029225537 -0.7257191336552336 173 170 163
1.5771664666923277 7.993472464042044 -8.500501006460626 204 218 228
3.0760824363706316 6.7346750747760336 -8.189573370185332 207 220 238
4.038206406924159 10.352514067625426 -6.214778262685522 135 74 42
1.9264063239439575 7.106356511603898 -8.722496134269193 207 163 105
5.924276112071047 6.646382923131095 -6.356488109661657 200 218 241
8.78396267304772 5.244745886034153 -4.126648298783495 75 70 64
7.416893658489728 4.8121445236780325 -6.312673799338923 194 210 225
0.5867145543263784 11.870572101492167 -7.376664349439042 109 39 6
8.425914361346393 6.099639374961132 -5.3503033070608765 175 192 207
0.9499740537525643 7.900435151909511 -8.825435579997555 203 152 91
1.9213836136773648 6.814002618158492 -8.855356288725499 117 63 36
11.913489809791406 5.838467227163414 -4.179899790994692 148 90 27
8.721296434381657 2.7379050761367867 -7.100520339248373 129 63 4
3.4947089693678546 9.287543809576023 -6.772699716979853 196 209 227
4.558438779806983 4.313901883543331 -8.597723009748263 148 93 53
2.667762910008151 7.404229607233061 -1.9410991805026077 55 46 41
2.4529035479438748 9.649256525665457 -7.357290359052711 212 161 82
7.871751066195788 6.25675836543435 -5.232870130017806 44 67 107
7.735055189460101 6.026071178366001 -2.753507852771802 17 23 12
3.726829863215465 6.829827076450602 -7.8173250161321635 121 129 154
8.124145928706268 5.5858495718333865 -5.68058274752396 93 90 97
3.439420764329876 6.754715185581352 -7.124912868537553 220 228 244
6.832499705338252 5.908701455638541 -5.901510179420121 36 46 47
4.786069077057203 4.181185681747424 -8.559870441319745 159 106 57
4.622695026669223 6.711082165895373 -6.732774894600303 131 121 112
6.254412443392695 4.879016604531683 -6.886965768903857 200 211 225
6.3243357470426265 4.004885618175155 -7.789004375795215 115 57 26
3.6668057725024163 4.678097996392203 -8.746413742368029 114 60 16
6.21952934299549 5.921725233748961 -6.23365077375441 162 167 163
2.0312814134278976 5.423788104526476 -9.400817939872617 202 165 126
4.346113332883255 4.5885873551962 -8.564088772780595 117 70 54
2.043733346042212 6.637055171877813 -8.881859967576224 134 69 26
7.360097434018328 5.79567417394365 -5.674554526395339 200 194 186
3.192961046268506 4.105047600548619 -9.354090570684965 165 122 73
7.357182088942851 2.581214660280069 -7.8728111337671915 123 59 15
5.047285539366318 4.152112423491147 -8.466333515815146 168 116 69
6.847940079943595 5.457468191617419 -6.061296190198784 105 127 140
7.661095088096294 7.235170422739238 -3.563341899626313 103 109 112
1.2585465890092271 8.71212477720192 -8.329460999956396 210 149 76
3.361562320404758 4.904139948353387 -8.952264472939833 128 81 35
3.155274567332652 5.961294769046963 -8.608193565201592 186 143 90
4.755852141741248 3.5373232458859643 -8.7933117601033 175 130 82
6.988875011813591 4.569780604674805 -6.813549376113051 175 192 214
2.6233365889961657 7.702580861628103 -8.128983981164135 55 29 17
8.805710127820284 6.911302504893659 -4.96833011755628 143 144 140
8.019130605804637 3.585516232651093 -7.137311422549478 17 1 0
7.7390372395517115 8.879321142872675 -2.167769624760725 139 137 128
4.710529577038285 3.8564669074288074 -8.717075823618197 139 93 59
7.121445603607477 3.929014378923949 -7.458321457921138 167 119 69
7.770348853428335 4.478052807562953 -6.309413926076586 185 196 206
6.651457225790034 4.696064323539339 -6.13393419220295 199 213 226
3.2802772702919696 4.879335025691402 -9.02439369625406 147 96 72
7.163051276092922 5.459181869085561 -6.120175405534384 181 170 151
1.926472267048312 8.601345859994108 -8.061971146102373 218 161 92
7.256248473877118 6.784919102699819 -2.8479131796327426 51 61 51
7.4143940825063 6.89348046373566 -2.725827277016819 160 160 148
6.368062406461152 5.5741789659044905 -6.4563715473481755 168 152 121
7.114140597640579 5.769121937896993 -5.904794454277593 181 188 202
3.9859903362106723 6.47494248407205 -7.707845086275908 69 86 107
8.928868304216627 5.61684153830052 -5.838621637423091 123 81 43
3.7772122907575523 6.806217087065047 -7.366283903018948 188 209 233
5.459681832892719 7.5477533077714885 -5.274161885265378 212 208 203
3.874571057947349 5.4784483490058715 -8.18829226637308 133 84 61
1.5877299710960382 11.32443252964344 -7.059262620345306 171 81 28
4.518933637237657 4.103776401154501 -8.711365207863265 161 108 66
3.13140074105774 5.988743968419855 -8.60041548734284 142 84 36
2.1053065260498425 9.048376837851364 -7.8005989853604 163 78 28
4.613415219068346 4.976520735232647 -8.29046435125534 164 118 97
8.777368411188167 3.139751915995857 -6.894246657677273 176 121 55
2.6265873992747983 9.583329726415377 -7.310505103318465 200 146 80
8.094971785216693 6.3916594096973 -2.5512662676209743 40 46 29
7.744900767910803 4.848731955073678 -6.211918264549038 145 153 165
2.09284460120445 10.33040929375204 -7.357730665821921 196 118 53
5.4899951737749175 4.583576478624218 -8.018620450440697 118 61 24
7.643392364029671 7.256431885386374 -4.739802869309106 141 147 144
2.375494309585916 9.630417651705015 -7.507368240538448 168 109 69
4.072944566332435 8.64295761262363 -0.7853226275802012 96 39 18
3.488664873790739 6.747362953800002 -7.674453026990871 54 84 110
8.061623909262053 2.8819725854798537 -7.385832483625084 28 12 5
8.164751641761494 6.7893462125994795 -5.290968755177815 163 180 202
3.661697246047769 9.722324369535068 -6.601126707630017 54 67 51
5.438058223554413 4.802762433648828 -7.284815008584231 28 22 29
3.650200224810637 6.315711387467294 -8.160843306196826 211 220 235
4.289902757471435 5.300699885898095 -7.8914631054611375 216 231 249
4.7642662190257115 4.954144457488884 -8.212935701160566 166 113 84
4.61584390096871 7.747308127139161 -0.9532401152384229 36 22 14
2.7871200268213263 7.059385856304851 -8.31359752503266 157 97 38
4.539087283110437 5.080554993357449 -7.546279492400398 227 242 255
3.3793137057894036 4.636344078035558 -8.900193950376494 106 56 25
11.942319154480982 5.854517900550786 -4.192021711131383 147 86 12
3.475431250496212 9.225722398307331 -6.787226629058864 31 33 25
5.781555476752487 4.893841845295212 -7.352192125289087 188 190 198
8.15661438533425 6.7923854219471 -5.250492188800062 148 161 181
5.074788778187304 7.397222032634802 -5.669596193106362 39 44 72
7.6018852734085565 5.759446119911863 -5.93008118281714 174 181 189
1.2593349222160684 8.00410012302877 -8.650176901272024 197 137 83
6.273359816852888 5.805974622390619 -5.961873193135556 200 216 232
2.099065700239084 6.568691972923091 -8.890140914073704 149 88 43
2.796297339327864 5.992640315270101 -8.766786196341588 43 24 18
10.045930617176245 3.3455247166803486 -6.133580116409823 119 56 1
8.518801578161687 4.986045601396566 -5.655756763866348 188 175 154
10.55779114435109 2.969219566283403 -6.018761209667398 132 73 17
7.91968340312688 6.64749875821515 -2.685016896084532 143 146 138
3.897731655406092 5.719823983105673 -6.084531285476951 203 209 217
7.490885124746935 5.396501296848468 -5.995302724787211 187 180 177
2.413454907521375 5.696308473331778 -9.123985917141717 192 145 104
2.5154557833003963 7.750055966094628 -8.153032076746348 143 78 52
6.234898218466211 5.562621837078102 -5.826575024923534 13 53 69
7.938884217927203 5.88656682751465 -2.5822425388644974 47 53 37
5.7837450281539455 3.9060724475483704 -8.152049809983355 138 78 34
8.69887922748742 2.880856639074453 -7.045181953582061 123 59 0
6.600401150100549 5.714315099597103 -6.051831038130869 186 177 169
2.2206436590489713 11.893208657347287 -6.498476704463918 205 134 70
3.8943968771476625 5.181934346002343 -8.5456867522652 182 137 83
4.437655250825529 4.84414372074357 -8.417889323984323 173 121 67
1.0770364779632855 7.214121752263316 -9.034122147669015 133 66 24
7.550179101844654 4.997639967210604 -6.210745781422639 192 203 220
6.752338003537117 3.5765180888164805 -7.797989796515175 140 78 29
3.9687709346941515 4.68670379755354 -8.682120310758403 152 97 51
6.64565914404148 3.036987170077892 -8.057160535396696 167 111 50
8.018064135448812 5.805345577940161 -2.745713009901507 24 34 20
2.19392564800111 5.3457948486383415 -9.380788491983072 148 85 56
1.6120594192363369 8.154089405066856 -8.40475114642912 191 123 67
8.348271116256933 4.948497830986242 -3.2577739275202027 79 68 59
6.682423398637303 3.300663223443799 -7.944746954601252 164 117 75
7.566677072866897 4.480732551510389 -6.329556713532192 32 42 34
1.9945635021375823 7.620237265898732 -8.475175826000132 214 168 109
4.998629596743537 8.282661063305392 -5.9058551103890595 119 113 113
0.4287325300723824 6.826537906481913 -9.56980588130122 183 144 112
8.153797540188771 5.917078724241016 -2.6045574794926836 155 159 144
4.572903079726663 4.506921895864248 -8.455515890859468 176 134 86
6.951850892914667 3.812439123415736 -7.5878575095391625 131 72 33
5.708936315600457 3.324444185689865 -8.411034939753359 172 121 63
0.6622105046243432 9.783692865299303 -8.169019351033416 201 134 57
9.234873989687483 5.059498695333218 -5.924666190109877 174 122 62
5.489803799133724 4.645126893850829 -7.9742384417193275 163 115 69
3.74154754455962 6.263920041875672 -8.168786028138305 152 97 68
8.397207301822903 8.084071066758982 -3.8299207585690835 23 25 33
2.2081231278402202 6.763561756448584 -8.744597371073771 188 133 92
7.027109960499444 5.856857776900265 -5.648719607677033 197 192 186
5.906868393978687 8.381850749842222 -3.792857146096985 120 120 120
4.105251972809447 4.057401057640176 -8.973876826105371 170 112 69
2.237572107065805 5.614978573608133 -9.232409850171337 194 148 96
10.766729235451537 4.8350681507284 -5.187443179077375 99 37 0
6.815313904801142 5.414878260135536 -6.292697023359898 200 195 188
3.185025504403534 4.352579644191054 -9.2967549098613 185 154 109
8.396286392975336 5.811587430090093 -2.845219515210006 143 147 141
8.790718712673128 2.6925081621667597 -7.066755675337418 178 131 61
7.541377575452954 6.474120996689197 -3.153712820456203 166 168 165
7.360899575115943 4.525987510327528 -6.5983917602417 85 88 95
10.714125212931114 5.685100454471752 -4.860099009941161 100 47 13
8.696093300283113 2.3646258513587104 -7.155963149757261 178 119 44
3.5336972509355387 3.8032913286744643 -9.34381011685032 134 75 42
7.775947012464525 7.047301693009442 -3.5850548606792416 89 87 76
5.5895138848882056 3.668192015976889 -8.361245727130587 197 165 126
5.923041951507847 3.5806712596906634 -8.239022066650184 186 140 83
2.7862440685009675 6.245506853227444 -8.663060823533653 174 129 89
7.171286268911351 7.901307395572745 -3.077600548817144 44 36 36
6.306653798052033 3.367524813620262 -8.133419274183506 115 58 22
7.344965271674995 5.129266749672271 -6.107400078918591 21 17 2
5.476539316734072 4.656481855551141 -7.989570495998907 130 73 38
7.592773096475388 6.90789054583002 -3.679024035230108 71 67 67
2.8755642430187573 8.738083701325637 -7.552248749271988 207 149 77
3.8076007932794806 4.174809892647652 -9.023307543475154 79 47 37
7.590248303374565 5.452962868960796 -5.971043946491084 200 213 227
7.660530548842096 7.000563519583025 -3.1952846193482487 37 27 24
2.8288738645117104 8.936502735254273 -7.446890462970062 152 76 29
5.553025739907653 8.168766022767326 -2.889915730074322 116 116 114
3.3611542742893263 4.904488419386296 -8.951188225493553 128 81 35
2.046678869117533 5.2461460988925115 -9.499715151343754 92 48 26
2.476509159821453 8.839875128694276 -7.720248619407329 147 73 39
11.276368950454854 5.983277083806774 -4.452451050286968 86 43 11
3.5134882486103507 6.894611958562802 -7.709005051568395 178 199 219
10.647204989066093 3.562669360796228 -5.717547253212063 106 43 1
5.2368142582791855 6.19526213070813 -6.678327659399819 195 186 171
4.590283789182 4.621314611257078 -8.466441299040152 194 157 110
2.3375321610164836 5.150804702747882 -9.309762735405464 155 106 77
1.4251074393799978 5.233936990185758 -9.567903788146912 114 80 57
2.9052348619779274 13.136107053904174 -5.608731292476969 85 33 6
1.8860406799390996 8.298365511163587 -8.171205760544735 209 142 76
8.508364173131644 5.832533369710272 -2.742108061331105 26 31 19
4.798478250539736 4.955538756435218 -7.558246759104022 211 209 203
4.590134415525434 3.6440210072890094 -8.781103692452627 186 135 72
2.6588511167770874 5.3227418986589825 -9.199578935164777 168 118 82
3.0092604439160873 5.00865227556388 -8.93895062273887 135 85 49
6.212793799957891 3.111387227878828 -8.26090962856659 184 135 69
2.0268353041774585 8.294626343361438 -8.126800517793047 168 86 30
5.865126184443186 3.4500060426043357 -8.320718992195713 175 116 59
3.313373188345961 6.706482137851083 -7.01026775991745 42 83 112
5.987391371780624 3.4737314029753565 -8.266517875711752 189 146 94
7.603092700038794 4.135762529979275 -7.100273525188323 202 215 225
7.736228204965423 7.362753195784 -5.2068355070879555 60 62 66
7.289873252040563 2.8837153856860582 -7.812220115727505 157 100 45
4.651175689921332 4.957656206586195 -7.551492004069407 189 186 190
3.944325606935049 6.787456847127121 -7.189806361416655 98 140 158
2.4169559787397947 6.651436992857865 -8.680281222468178 187 140 90
7.120421630314368 4.20406735399444 -7.339673467664196 112 61 29
0.6230486299310272 9.20694552846427 -8.398744427018306 202 137 71
2.804004654517345 9.377811210692435 -7.293269112485387 207 138 76
0.9192568081170884 7.918312747189399 -8.829012059414937 112 58 27
10.091580168880443 5.714823740515345 -5.166907164744939 123 77 47
8.664979624000237 2.384438962556014 -7.1943988548012205 190 136 59
2.4048279370000465 4.9883967092841806 -9.45866199729327 152 97 65
5.750773264877408 4.490603211371614 -8.024281944016357 177 125 78
2.2615197582043884 9.168090170154343 -7.65880856116737 178 112 63
6.01790071372573 3.4460084173886965 -8.233339557043749 180 138 96
6.1086247818459825 8.180161923577437 -2.901343691828004 145 148 145
4.683911745440644 5.2799561707956135 -7.629200476744558 209 225 240
3.822411711126234 9.820898696661313 -6.542626164162996 41 47 40
3.7084563303830986 7.134941016465983 -6.963822012594417 203 201 196
2.7055443406158544 6.934372594482757 -8.431662892099876 90 71 66
2.6412215866919495 7.144675221815613 -8.338125863469838 176 122 81
0.7427931888455502 6.189042309700983 -9.2042625192236 204 187 172
4.734235065626296 6.7873826917586415 -6.651683211360542 200 191 184
7.190575792699904 2.2840747871511224 -8.118672893569379 109 46 10
7.468912125511685 4.671166071044322 -6.309006975475481 32 46 32
4.420745634250702 5.2340180244443335 -7.49688495669156 37 72 95
7.821146637678686 6.224790333270474 -5.192314971380366 49 73 110
5.913569577933244 3.683156139466055 -8.157804882233073 131 80 55
5.1195398003242625 7.639482408015471 -5.508188367612058 40 48 84
6.606538458136416 4.638376080388934 -7.429928000573904 130 85 63
5.964157967381224 3.5970507661516797 -8.204228271801874 155 98 45
1.4497053285640118 6.35997725180159 -9.262108366923764 157 116 98
10.958224652100442 5.386202162599729 -4.8068254607969045 91 43 16
2.163758053483463 6.353104605736088 -8.959237521567966 132 85 51
6.764429558255527 5.612764206532754 -6.049539975751527 183 174 165
7.185124007832618 8.5341441961945 -4.2919963348708 121 121 120
8.638445357833854 5.8836995619973464 -2.6531817519075642 44 57 34
0.8985147285745296 8.736717419408814 -8.460522514232554 203 141 69
2.8600435022331094 8.604317291441864 -7.765827011079883 203 141 77
2.086866454774823 5.6906220274348795 -9.354606785383604 179 137 93
7.604817098125958 3.039380185570162 -7.572934005939405 133 71 28
2.8810304504951825 5.264955753043947 -9.058015007394214 60 44 41
1.8532716351341973 10.576686302095455 -7.292991709626531 158 68 16
0.583853847806473 7.6133252878306354 -9.031496563970439 156 91 46
7.973776085716599 6.936495728834891 -2.3800918524576233 162 162 152
4.106748758822783 10.07896682589843 -6.263020014510403 165 153 156
5.527017170927821 3.876393731078241 -8.302072523724402 171 125 81
2.4056282211652205 9.768385661712175 -7.336290159861691 66 24 2
3.275086380976011 5.755059110935324 -8.610806034150803 173 128 71
0.07951026827075336 10.538890421788194 -8.335116063362463 184 121 54
2.1649063384887888 12.15125354555068 -6.435660205959113 108 51 24
8.193165281872304 6.374479027584619 -5.4077595113946115 177 195 213
2.3545084076492335 5.059607887464389 -9.384803856127537 159 111 76
6.968349832120617 3.017395814956219 -7.930147088470342 158 103 49
3.2446621050006295 5.342930759663093 -8.829127982499218 160 101 60
6.770174036121692 5.739773303719781 -6.025631201574149 104 91 74
7.344062235683701 4.4883816229762274 -6.6211090665095185 179 198 213
8.264696352292484 6.498627026961515 -5.1924958564592565 153 154 151
7.0564066953746805 3.5843703907362703 -7.601134496810114 176 122 59
2.1471144906315343 6.87853824113842 -8.731587428393254 180 123 75
6.498496837228921 5.521388606257725 -5.937014233578115 26 39 37
8.181392187227202 8.737117100788733 -4.538187495170962 51 46 51
6.746781054281846 5.233578761828793 -6.474719047878356 199 215 231
7.736384306155704 8.684646382076783 -4.2295475622946075 59 59 64
7.414571569511672 5.987348857469187 -5.482672599254915 184 202 222
-0.11478698363681687 9.045783051987144 -8.924202486920297 161 85 29
4.349669086348483 6.513232456011 -6.652413983236841 197 198 195
8.699812541767193 2.119060165943741 -7.292098628445249 168 109 39
0.9803440142482583 8.083993862528278 -8.688477207446807 217 162 91
5.959882587248978 2.488341663061283 -8.732503830965745 184 158 144
1.5861162829614834 10.243597955160219 -7.522712413571286 198 125 48
1.7684479005082083 6.556082687643182 -9.029813539827614 166 108 68
8.354676459229617 4.936914999787314 -4.1563735010914336 123 124 116
5.722621537528917 4.659650715627298 -7.864419502669198 185 138 87
4.613505515449753 4.649996583782782 -8.421408404498361 179 132 79
5.141573310080107 4.627409861603669 -7.258831891987963 34 70 82
2.229615137100673 5.409365864740115 -9.28743160104874 119 71 46
4.910215894892096 7.3022717002316915 -6.541322251539946 95 88 89
2.6967215217094953 5.916956420285615 -8.842717480586504 92 44 20
1.9430546051995117 8.038548508668942 -8.25715025496203 211 148 81
2.527909512002475 6.817692186532167 -8.533045312624113 176 117 73
10.553406167112495 3.153677034421248 -5.913436362050961 162 108 43
1.9533210138902999 4.863581982418537 -9.433084681357387 55 19 6
6.822950662685198 3.7720035241936607 -7.68790620431481 133 73 32
2.1159793711607056 4.636293124252289 -9.71369139187289 167 135 107
8.462685287512892 5.973350420500256 -3.6047766843055675 113 112 112
3.200971352232407 9.935936837742911 -6.8331671655084 84 41 33
4.478019928681195 4.144209101277325 -8.710566376688842 193 146 91
2.1817795198735546 5.154411023291096 -9.513115138973252 162 114 88
1.6115474830532859 10.524068564818018 -7.401272175532343 165 76 13
10.748072024350796 5.0845927792762815 -5.093306158173734 105 46 10
0.8820149200614953 8.32988198409605 -8.58338314901021 176 102 47
3.560406247043594 4.560657793575633 -8.983512734925576 197 163 115
6.303086279813975 4.362383020999616 -7.569113832344156 163 102 56
6.4181582775108295 5.507445917062583 -6.622873043691352 208 219 235
0.9034050633708769 7.361355104381462 -9.081715323098983 172 108 72
6.157173306789418 3.671165959377032 -8.06146294984041 181 127 73
-0.8978069022513246 10.34852828281521 -8.757108362716371 191 125 74
5.485349113495962 5.406866050669883 -4.87454022299178 35 74 91
6.628314689619607 3.314820285702792 -7.968070687737985 113 60 30
7.895395781269141 5.043127097358299 -5.913591117639129 133 120 112
6.354011941817104 5.851647781092565 -5.842967116265356 202 220 238
6.314714508545836 3.8253154808625496 -7.88563190839064 167 122 81
8.10353730120217 8.503559680487623 -4.519261138748507 109 113 122
2.2501629273771444 5.868993671115381 -9.115788811326246 188 137 88
7.59940930654756 4.811014067976645 -6.169852720286801 186 200 216
6.019427941957437 6.800931284998894 -6.13325870002002 47 62 96
10.099776020041563 3.712932223410026 -5.952267141907535 54 12 0
6.102126295757891 3.276437982687336 -8.22557709249168 179 138 92
5.652188459019793 3.275895400969375 -8.481072550041883 192 153 105
7.082477619556105 4.370611354795275 -6.826823145705993 47 61 54
5.568179581522232 4.893790295372038 -6.516169759521191 79 99 114
7.358672500997603 4.343351982154397 -6.558737567388826 42 53 51
3.501463994761682 8.69619982986953 -7.225113289764889 187 199 211
1.6586306108819626 10.39309876390802 -7.43403637405011 212 153 72
7.145535431231586 6.184898098280561 -5.636770720620311 100 100 107
5.964157967381224 3.5970507661516797 -8.204228271801874 155 98 45
6.985183322784256 8.584627256354366 -3.993491839755659 66 56 55
-0.027946490937406747 9.05769690808164 -8.722047987699915 152 79 34
2.084148014697606 5.81488258635663 -9.18535756324574 182 145 116
9.160264105708846 5.084622360334797 -5.8599386718743 134 69 22
2.1540172085173808 6.233926098583968 -9.00612608281269 171 103 66
9.051760858788882 3.5609187522605112 -6.595708994036546 128 67 17
5.381007073102727 6.369007161401469 -5.266875583868464 65 83 99
5.88131356559633 4.682046562259361 -7.781801758089394 165 117 69
10.417287340759783 5.753270517167163 -5.0140566817185865 133 79 26
2.9168654395900826 5.185091718789152 -9.127305885971325 195 162 127
6.855474947658704 5.472076158279987 -6.268092179765211 101 85 71
7.286481950469585 7.194816932418439 -2.507129227029203 161 165 161
4.379020601241758 7.387803007158561 -6.777884491188277 145 134 140
5.311972744449639 4.64800670669266 -7.235078951767675 202 213 223
4.944138137713248 6.336592974058443 -6.712149879999831 200 190 181
6.369904117226431 4.505109188237318 -7.560979170102987 157 99 60
5.7667601820575625 4.444454426927635 -7.9241242159570495 154 91 47
5.73714030966876 3.3328012138650416 -8.427248244707489 184 139 88
2.622458936539424 6.014356331748664 -8.884367447019521 182 148 111
18.773873972400903 20.983113283878744 5.817023726125885 40 22 5
2.002547189396883 6.6663101512583545 -8.863658240159653 216 181 128
7.385996360986749 5.493753020277549 -6.016892882996146 167 169 179
1.1418362970591447 5.523355132085798 -9.685720922708494 59 36 43
-0.5463555188752651 10.598218422524104 -8.42641087430308 155 78 16
6.9938109187254875 5.5371048054049945 -5.773001287077372 51 107 126
8.628435343293242 4.437649512149653 -6.216060889549885 69 37 17
8.588835608050417 2.487000365596753 -7.2732447979984 108 42 0
7.9586001897516585 5.883921800736373 -2.833844317105515 112 120 119
6.392921833352803 4.414346346413135 -7.6420336193080605 164 127 101
8.178097730146924 8.704549214744944 -4.615224780749156 119 125 138
0.981067897605894 6.69211587702543 -9.369596687660739 188 144 85
6.902797828412362 4.429867427230274 -6.9535010345410555 205 220 233
11.644263557706859 6.140813760684146 -4.2203337250407955 85 39 3
6.866090834536872 5.525257904713113 -6.245967962841948 180 178 174
7.899420228047776 4.427092911415608 -6.370312593124817 178 193 208
1.6142035853975258 6.850569076538594 -8.982221131398779 193 149 105
1.5007325368183175 5.505626514146882 -9.12874216680493 213 209 207
3.960130479488594 6.7037694763558635 -7.383685801905453 212 233 250
6.961123185020653 5.487047168856677 -5.665430107214101 193 191 187
3.642959738114254 6.402832204357008 -7.931840718274165 190 201 215
18.43552011208525 20.512248487777647 5.643322668177979 35 15 9
-0.1431410951142252 9.897912326826622 -8.507052071584884 166 80 27
1.6615462307313065 5.1072943664401835 -9.546003790831692 165 134 106
4.514202677373415 4.323327534409709 -8.616437992438144 178 136 86
7.647123904572151 5.196011964873147 -6.043585287105378 102 87 77
3.3280762765933414 6.62542282231965 -7.22393602475771 198 217 234
4.0509875752899625 8.270531256370099 -6.370630013954252 34 44 35
5.743174947189424 4.492596437743805 -7.9261951416015215 168 126 88
2.572551471621979 9.490350540778673 -7.388782940437215 215 162 78
5.9186253994110345 3.843403167995977 -8.113820088193618 173 127 82
6.563359084390686 4.550980319053567 -7.454306929918774 69 33 8
2.114282188958575 11.407060831164065 -6.762646869797081 183 102 55
4.135927054327487 6.696597984797977 -6.772818807903892 220 234 250
2.940299275244083 4.320163379959837 -9.337127918436964 147 106 76
8.080339349747286 4.441921081880332 -5.9970871532570875 194 211 226
2.10559056501253 6.557005657084899 -8.870205486754287 180 119 74
4.072602873540005 7.316330160772519 -6.989628012101039 209 221 238
7.109871043050717 5.559434990099568 -6.120947460678502 97 85 81
7.874138440393956 6.557095038794531 -2.7236183901528985 140 142 127
6.606870648353572 3.100791158839419 -8.08448685853243 169 117 57
3.7240674488398873 7.893419127986167 -1.5194361446604454 59 50 41
2.850061221592164 6.621514116908266 -8.559313550495219 201 169 114
5.656329611685281 3.938260206703103 -8.244355965416391 175 130 71
8.798898982110085 2.699266022323351 -7.076203641051744 178 131 61
4.031544620120771 5.237456525568657 -8.043501541792113 206 219 236
5.511819215449503 4.840689262529846 -7.190808582320069 210 223 231
3.4012387877594725 6.410648824439853 -8.284708489607763 124 75 41
9.386124768116893 6.575496207977137 -4.807717821726672 51 43 35
2.840731600925964 9.119930610861218 -7.573282583592796 204 139 76
6.825677172919646 4.563702149197435 -7.3536535482391105 89 48 36
6.820502120467851 5.360841298144897 -6.292520451284866 172 160 132
