ply
format ascii 1.0
element vertex 701
property float x
property float y
property float z
property uchar red
property uchar green
property uchar blue
end_header
1.6427170616648938 3.2276957846226093 -0.8586999700340121 78 60 44
2.436687579010403 3.6979620497211005 -0.572296527743185 172 145 125
2.169824101748652 0.779935985185551 -1.4247105041586106 186 152 115
3.1355447041385287 -0.48652061232383137 -1.5639658004420611 106 88 74
1.6437215382394095 1.5037747413048579 -1.3449571995428844 163 132 109
2.3291770991574983 1.6444144133750038 -0.48731192613419466 167 178 205
1.587529434433301 2.7820598346375016 -0.9798701157975427 101 76 58
4.394813657572002 0.6056271534845419 -0.9825205017593173 160 130 107
2.9696607570666496 3.2467344455978937 -0.5430560275666166 134 110 92
1.811800317381814 1.5340458575229634 -1.3139001706408857 160 129 108
5.7007183717689305 1.53093590132896 -0.41779461504020204 113 100 92
3.395983300094139 1.4139861657196295 -0.9789711350949349 165 130 106
3.0390414900916936 0.9990338144097306 -1.174502199465639 138 109 93
1.5576011842894633 1.679359146931276 -1.3163159241521507 184 150 115
2.0746968760566196 0.6688667843735933 -1.483862582892154 147 115 92
1.9834761491878745 1.7307049528935725 -1.2039928107113205 167 124 107
1.935741524778198 0.9618019478468806 -1.432019623169679 98 75 58
2.6552631254547494 1.52625160009726 -0.9896207655183522 150 119 117
2.487050928325769 1.3276542140001075 -0.33345618345654154 124 110 170
2.654699743274495 1.252786390692599 -0.10393382315595692 150 116 156
2.556439183825664 1.975783742299043 -1.0179729239127673 138 111 104
1.7018179847016148 1.5551766865065395 -1.3149885063093656 177 146 117
2.7027824293694955 2.651059085248522 -0.7786965691707503 85 66 56
2.1583368890898593 1.9735908065381838 -1.1047660979871474 112 85 82
1.7707302075601545 1.4355716567599386 -1.3362451681576097 61 52 52
2.2129958404874897 1.6110210921534387 -1.195402462349707 129 88 78
2.576764702415717 1.27355574051908 -0.6185112467799379 253 160 160
2.814988904534084 0.4394517015088124 -1.3765687726694558 127 96 72
2.222686903262593 0.9434104537609195 -1.3695355132277767 114 88 69
3.342694123456245 0.8747611354096079 -1.1389498496113568 161 123 99
2.2582677996764335 1.6538266245931736 -0.3199982477301927 186 212 235
2.9142036528515725 0.8314721008856882 -1.2512358491698137 135 109 91
3.682968622052628 1.6285161310730671 -0.8504022227671504 140 111 94
2.8500494098960303 1.0345762185292295 -0.4228896113815003 196 82 92
2.139874918707589 0.6617066443056597 -1.4617064156671096 174 133 101
2.0350256227551373 2.290702300872157 -1.0473920862360455 164 136 115
2.648100127704835 1.2409425779747845 -0.12111769992264122 166 147 193
1.7246752935713368 1.185782931721556 -1.4222568701061522 126 99 79
1.8007699409508762 1.7736924238254435 -1.2346039780536824 175 146 125
2.1104602928390186 1.9546801295083873 -1.1239442989284913 158 127 107
3.3974389823532567 1.1998401964844756 -1.0312758449307051 121 94 82
1.7574174878922062 0.3427692182616514 -1.6398694356053136 103 85 65
3.562130622316903 0.6532394024577824 -1.1561387354843666 140 113 90
2.3646639178767526 1.9635652297914032 -1.0568795145147296 126 99 92
1.9768641858152147 3.0753847178701967 -0.8421695887525183 79 62 55
2.109878452087718 1.6080256416355825 0.4537781854403283 155 165 175
4.196732925596689 1.2298372032539497 -0.8472782699998248 176 146 119
1.0275737347731275 2.5572809773797203 -1.1922008727327673 115 97 72
2.6797689913428187 3.569789984550191 -0.5354893258217767 136 113 99
1.8255948074179187 3.1527774627761223 -0.7843892663044347 150 120 96
1.9648402849630104 2.3579427152512173 -1.0354053609984961 165 137 117
3.3096568653899308 0.9224860413587732 -1.1308932964603309 167 127 101
4.286365736322459 0.6550986100968689 -0.9865760950756864 108 86 63
3.4559951987756246 0.9222137452997974 -1.103969719661506 133 99 80
2.250876512543439 1.6962813094932383 -1.1610852468523298 163 124 97
3.2128981601997904 3.089712471111365 -0.5660510773856048 71 54 47
2.53479974143462 3.5367065231558223 -0.5830806437204132 118 101 83
2.4843292670436714 0.24978181059280408 -1.480106654393127 102 70 44
1.941729696843138 1.8125203242106886 -1.2037216918889455 168 132 113
1.881679232156157 2.7144552114754976 -0.9545802079999498 156 113 81
1.4235314076091643 1.5585465656538378 -1.384750171803605 183 151 113
1.806828941558654 2.240822214369419 -1.10084378551874 163 132 104
3.5093507258470455 0.971748193647495 -1.0740299981799126 134 107 90
1.8485450107428194 0.9729332607342704 -1.4510936532342134 147 118 96
2.13833565338561 1.8570850401017778 0.24112249468177605 176 202 233
1.8399303830728246 2.818117151597846 -0.9431749502462246 188 158 124
2.165618647312805 1.932151735730183 0.3471314697200843 151 184 218
3.492210614683319 0.47005659762599344 -1.228171703267937 128 101 78
1.9190438626520487 3.9376235661707772 -0.6659306760816933 103 85 68
2.105130719368053 2.9859507642203282 -0.8354056557706917 158 126 104
2.524739110718125 2.26307091637621 -0.9553815759912726 135 106 97
2.1478508217646968 1.8789375821884637 0.08683092006942213 104 154 219
1.8423615500972867 0.426160609476846 -1.593500015041251 142 111 91
1.8988918560699182 2.386435205379428 -1.045395830384227 109 87 75
2.691406488621735 3.248071589144786 -0.6275835652785436 83 73 76
1.2874784505870278 1.696280518586654 -1.3695957782074262 187 148 113
2.6598736335205158 1.2200519673711845 -1.1982475926757585 81 63 60
2.0626293344516777 2.045803122769479 -1.1085457969557964 142 108 98
2.2951013846678343 1.8391323277960574 -0.5672044894423577 184 187 200
2.34632082169518 0.9846249210493218 -1.3316300560076217 148 119 97
3.7508984325548416 0.41956640328492256 -1.1710763567613476 101 75 54
6.159083219954426 2.47743492663928 -0.03915029484527673 99 92 86
1.3561679797057153 1.517753345467874 -1.4053333895925233 180 146 112
1.5275888472789299 2.0828447081565034 -1.2090289895210595 172 134 105
0.9959168511005958 2.8373321383266443 -1.1169275412711193 141 113 89
2.7500438782417236 0.30730564932615045 -1.4160509619054107 157 124 95
1.071862176068071 2.9648980660448454 -1.0482379956307994 134 107 80
2.7799023941461694 1.1436737245886357 -0.832189110437407 240 112 119
2.849163310523059 1.0951055783602144 -1.189156500267842 136 108 94
2.3546253077069292 2.2170063709040653 -0.9969281171634672 179 155 139
3.2155209676295007 3.105177164088743 -0.5604632885842984 143 118 96
2.5279316694686726 3.3139256602972096 -0.6504552436090938 150 126 101
3.4648550212593388 0.47476022188710504 -1.228506200540821 132 106 91
2.1561335689966974 2.283432344731509 -1.0146312195812688 110 85 68
2.1801194864652262 1.5766661998303795 0.8150145175200606 95 141 192
3.5254086676917886 0.8597406020059511 -1.1054568989010436 114 87 70
1.796244593539889 2.4417516480744395 -1.0507944121401078 134 114 92
2.859831188037394 3.203756650495647 -0.5982037262359229 132 106 88
3.0393281150495364 1.3815757766986063 -0.3033715233521344 255 244 203
2.3817841907440642 0.8566748672964775 -1.3609052567202982 91 69 55
1.575774791447288 1.8419738112062254 -1.2703505036934462 176 154 118
4.774278994222128 1.4838651491996975 -0.6379818177469985 91 74 63
2.2543735348456226 1.4802202647616984 0.6821427375777718 222 228 234
2.792826969738906 3.405702955845478 -0.5589359708384661 108 90 80
2.146832627144201 0.7759314505401733 -1.4251489032042877 116 83 62
2.5649194103017106 0.9553874444436233 -1.2957902469283216 145 116 95
2.4293623214244113 3.2929618289256286 -0.6812775296809984 125 99 82
2.4811772146493434 1.6268943545636299 -1.1239281908821999 121 96 91
1.9704992110060402 1.3793350143498888 -1.3084198826640951 191 154 125
1.974430233040797 1.1625424778435536 -1.3683164661725156 140 105 85
1.55670103550476 2.0483125308399583 -1.1997552517305723 99 79 68
4.1720833890674 1.9762651493803767 -0.6329370658167859 166 135 114
2.4293607715490406 3.3221866124244626 -0.6747732048347128 129 109 101
2.4513542448889316 1.7106751073552664 -1.1143254835005607 115 94 85
4.374702657783787 0.5144177161916804 -1.0058939634634192 115 92 76
3.2294909683090864 0.5937543516865029 -1.2467789984600635 116 97 85
1.6054810756702655 2.3010316268312643 -1.1300519119128563 180 154 121
27.97533510277866 3.0205754970536405 5.566793343721477 189 193 192
2.5487369364577557 0.9500141538325355 -1.2997729177956194 92 72 58
2.32368169998402 2.1150054052582714 -1.027768471275682 98 78 71
2.351976734488045 1.5125676200784444 -0.3512900591420839 130 116 177
4.831368708143643 0.6393554102021372 -0.8890909982946834 85 71 62
2.6861724089226713 3.25102786235216 -0.6418452011928703 141 120 99
2.160743430865636 1.8036176300066917 0.07324572413034959 113 159 207
1.9130637664713206 2.034901357733 -1.1387571596107293 94 78 65
1.6819634111641306 1.7391148835029677 -1.2702570686451298 177 133 104
1.6926062569054108 2.7100502279465712 -0.9963620473132748 151 121 93
2.2408206159367667 1.9680510580177977 -0.46235321836340576 201 200 208
2.867174204050202 1.2576347374019083 -1.142409686858292 173 136 119
2.6544588974465473 3.395991939296595 -0.6095249799545629 147 120 99
0.9693102120985819 2.286876598543224 -1.2838781472273466 143 108 78
2.131282585758516 0.8216227573560668 -1.4207258405908505 177 141 108
1.728861701803838 1.7039420241609593 -1.2687069146788164 173 142 116
2.32505359773482 2.182350182742122 -1.0027158480038862 155 119 105
1.6182097924221643 0.9941748346513695 -1.50083433171846 83 65 56
6.797864241057847 -3.8138241049448784 -1.619658217608509 89 89 87
3.1761356922859814 1.014140967708936 -1.137738459681648 167 127 101
2.1836511607427043 0.7653216213671159 -1.4296693372231177 104 86 69
1.68387266153306 1.6898331576931012 -1.285797313608466 185 143 114
2.815969608456405 1.0552036389830188 -0.5678897672449561 227 193 188
1.8698409390638497 1.151742955212882 -1.3940828743434865 148 121 100
2.299211482796274 1.9008926054004913 -1.0912240401498972 175 150 129
2.663476440632703 3.20966558001854 -0.6481289035441207 130 105 85
2.054222283367082 2.2416802635098567 -1.056282931080167 144 118 99
1.8633867262211912 1.9360507536722464 -1.178275765402743 179 142 114
1.739641692390599 1.7179119855513907 -1.2642427325065424 168 140 116
3.166995549972882 0.7271507430046218 -1.2152852964367842 136 110 93
1.844730355009982 1.9282289013410163 -1.1811726332419503 93 78 72
1.4261257447403493 2.1145763127615353 -1.22792951500743 115 99 83
3.0706929104077703 1.0303638215718305 -0.09817961365634652 230 120 121
2.894151696002628 1.0890576461705666 -0.15127799400769612 236 127 130
2.6632630325290636 1.2623334023075543 -1.1946541907096515 175 127 108
2.8876911377035213 0.8421581526639408 -1.2542597507769266 94 67 52
4.87498369245595 1.6923981940710016 -0.5615757056392705 158 133 111
2.022574117416158 2.6983403403854416 -0.9341259531465408 174 143 115
1.8090870165120307 1.7582651481681055 -1.2346754689776147 104 85 74
3.297551757608928 1.2705220394652796 -1.0407712549210688 142 107 90
2.1787228386220274 1.8352732146791144 -0.2250811381595396 190 206 232
2.4042161618293876 0.8493022622817104 -1.358825036695053 78 60 50
3.196286399057093 1.0550373243402213 -1.1218537489199956 103 76 67
3.7169347837722384 1.1296015785930953 -0.988174564100379 175 141 114
3.177746337669269 -0.03544309970644214 -1.4330093459863047 133 110 92
1.7934913694221206 0.9687104934288463 -1.4601319371648651 118 92 78
3.926718790067306 1.1147793683906064 -0.9393036648639262 189 160 130
2.361588688338725 1.8662924545365103 -1.0909664579488771 108 86 84
1.6768437396132059 0.9683123193872213 -1.4798620111991199 130 101 79
1.5222406382332712 3.4013234330891327 -0.8686059053498381 102 76 59
2.262053606397101 1.9184627752588013 -1.096262934696533 150 123 105
2.4934117394089546 1.3008383408274464 -0.43712953977592095 184 166 204
3.804198710312767 1.2114671342938146 -0.9422197630468692 133 106 88
2.2843851873109102 0.16104334587565286 -1.5768218972116264 137 111 86
2.9342204133585716 1.1264284060935372 -1.1619269403147052 129 93 69
2.3689749644989195 1.721218501754468 -1.1275775381535906 179 152 133
2.1588600490586165 2.9192178864634197 -0.8331047771414704 150 122 101
1.9537680779806577 1.291071501442336 -1.3354637980375788 161 131 108
1.2918154955421388 3.20604541954023 -0.9559790899084534 89 68 52
2.813850234116798 0.5868963616220025 -1.3324117901723593 131 93 70
3.112726747973771 0.6941800308916052 -1.2500746350306218 137 105 82
1.515103526317416 2.3350938562713606 -1.1387406120362866 150 124 95
2.148482729419625 1.843714544435406 0.074721376029739 167 198 229
5.065121158570457 1.6057220442499174 -0.5519407919916365 153 130 113
3.0814119196447733 1.0199788131053713 -1.1581082753002705 152 120 100
1.823901020997773 0.9567498647333894 -1.4576284414741068 151 119 94
1.7566828898973987 1.4116990223801746 -1.3514588072360814 161 121 78
2.481206466820353 1.4635790719314528 -0.4113815009891981 170 173 222
2.4637548254162627 0.4545270970897806 -1.4427155642384177 82 58 44
2.103675735603556 2.0036025490962377 -1.1000121267260634 185 160 133
2.8283521309455497 0.5266570974003258 -1.346137804944703 141 106 78
1.8605898466439224 1.008280613744733 -1.4327582510938583 108 82 57
2.1869319982965294 1.5622216737360068 -1.2116015734361776 179 155 129
2.935612275995246 0.9982443928794316 -0.38782691138838643 156 144 137
2.0692718445941676 1.8879251410193894 -1.1431656137298138 167 136 115
2.1020284659745188 1.508515546982897 0.6275350071919619 124 176 223
3.9140388341106864 1.0570362550765176 -0.9597085336198192 118 95 81
3.1456588930941742 0.8965344469248121 -1.1804267008438334 131 108 97
2.1879922125871585 2.2400232636764676 -1.0191118082776482 146 117 103
1.6405221461486448 0.8929103264973758 -1.5148976863456594 155 125 96
3.691047724655863 1.3988601379979975 -0.9226061816716716 128 101 86
1.849464325805163 2.3481415599853963 -1.066711723609844 177 152 119
3.979909899052735 1.3483192145832978 -0.8580754514694809 130 104 89
1.9205817865326258 1.8682404625565106 -1.1916007748352069 143 125 105
1.877716060700287 1.1079852736592664 -1.3986189499955646 198 162 130
2.2472650129320972 3.2867359939943386 -0.7255777136506816 144 115 97
2.218778962127644 0.7216473100528912 -1.4298552595058995 172 134 107
2.6332066535297503 1.7650433138027384 -1.0399457744209417 202 211 220
2.2073057837814067 2.582092096262266 -0.941931584144496 91 76 74
2.1446478673653937 1.9158532337435883 0.12056013759783722 100 156 217
2.6662437710872102 1.2268217749090475 -0.11602100917603901 182 152 173
4.314476047264676 1.5300986638460867 -0.7370334065964796 123 103 92
1.0411048805789962 2.0412867120303715 -1.3291006636723357 133 100 69
1.3863061754300992 1.5242127488463677 -1.395635715024964 191 156 126
2.3125814478265916 1.6387430950022124 0.03763596762572377 118 162 209
2.167144856969362 1.7979907112200753 1.0638929325928277 149 183 209
1.7008259315073722 1.9938631714475163 -1.1966934675310155 112 96 80
1.1613492456943306 1.5274026593669776 -1.4419499632225914 107 77 57
5.110109666561273 1.5697490466243718 -0.5410972075515021 149 128 111
4.898510040725655 1.6264898548682045 -0.5743539686717416 125 105 93
1.8783610612635842 2.8455800477174202 -0.9191279957560378 164 121 86
2.550717901776916 1.2452221542675896 -0.3618889182043893 190 169 203
2.1701239486682646 0.5922549356987182 -1.4720074612260285 176 138 102
3.596155267404449 2.5522808472175234 -0.6395123144638729 113 98 95
2.630722589424294 -0.42913210063656027 -1.670908386855745 103 88 75
2.2768063144073287 0.9088212186461878 -1.3708395651766534 138 113 93
2.856861765438843 1.2480258872648746 -1.1502576095036579 75 56 52
1.8541380893567636 1.7037216217331725 -1.2536286103757295 187 157 123
2.026064326668261 1.28116444209532 -1.3347881600840779 127 100 86
2.1827893604400295 1.5093639117620135 0.7322090612700483 121 151 187
1.9247586072873017 2.8952576283067026 -0.8919551387751308 169 140 110
3.4804122924631904 0.8784788299436121 -1.1073175201175212 117 89 71
2.4709756246408108 3.2725602132805958 -0.659411778494962 129 105 84
1.7334735233338088 1.2246037643357996 -1.4079280329529975 86 62 52
2.15618384497764 2.4515801796831203 -0.9783387011563301 107 89 79
1.8155311959577234 2.0999934530085285 -1.14316720062426 168 139 117
2.6056463678520636 3.2215703325219325 -0.6618012251947523 114 95 80
2.4214333570017303 3.3171837722649924 -0.6743782524488644 161 133 110
2.3248614681651554 1.6114144070063912 -0.43311669526548147 173 185 209
1.5767575836924204 0.9724624719253896 -1.5132051327663238 104 85 73
1.9263133507865144 1.2194821873815611 -1.363493601760275 132 104 81
1.8876353599393907 1.0975806166048065 -1.4020964734665111 139 99 74
2.4312636743595433 1.1119230147227706 -1.2903832953069443 146 110 90
2.5184008732952967 3.390160406935576 -0.6303207521179934 101 85 76
2.307891537943037 0.5404712229410092 -1.4689222560571058 117 95 80
2.4072539344016004 0.8679096709880193 -1.3537100337698489 164 129 109
2.041355110244714 1.8377539183332054 0.5973946386417827 104 103 112
2.578050109951336 1.5060438099715752 -0.020434924353206377 199 217 237
2.960750294393542 0.21734465307848178 -1.4116174293915593 104 85 71
4.237784769097854 1.2826159362839633 -0.8269698270429737 126 103 88
2.4452512741258863 1.5732461198330858 -0.04444699183365926 193 218 249
2.125331494785556 1.7617273037656331 0.2735499800793195 202 222 243
1.9207347702756774 1.6658230388808928 0.750294008423095 125 183 238
13.858360536404117 10.432510717947173 9.431734024448769 189 194 197
2.0759333001452163 2.7540925255375104 -0.9026648297578592 173 144 114
2.8937131104065954 1.1082698604299497 -0.12308538899071765 236 120 127
1.9469895797088734 1.7333007997932366 -1.2179691936231176 137 105 89
1.8913054415555022 1.533880229563216 -1.2821987707607148 106 77 65
2.8035710567969168 1.1585877619035618 -1.1923513065294116 142 103 74
2.301698616841569 1.675158276725785 -0.49240024358117024 166 181 203
1.5596791201016875 2.150575187216033 -1.1912646522968284 165 135 107
3.435899224691149 2.8988324721308825 -0.577937619686603 111 93 77
2.514265226885477 3.017560034366273 -0.6954658770003685 101 82 73
4.7985414334890555 0.7721062847803255 -0.8509635621475146 122 97 77
2.5764352606984495 2.222439947633531 -0.9370711724100389 150 123 112
2.5966311875371972 0.7757656884386724 -1.3358866331067707 138 110 91
4.7006679412970716 1.6892206365314903 -0.5953046239391404 157 134 118
3.9328794144160573 0.4227679569848909 -1.1428100583655583 84 65 51
1.9441826553292165 1.3001294478094616 -1.3391278622577165 156 127 103
2.3909190381003755 1.5698753787748212 -0.14033591092187037 190 203 219
2.532981381718073 1.2720802500647204 -0.36269120188213566 154 131 191
2.3353877382291137 1.8821553534364324 -0.6122799837911496 175 160 192
2.457528486082276 0.6190682701107909 -1.403108287986015 177 136 106
2.0590546561290948 2.1250754854581504 -1.0941814916042587 153 126 113
2.949640016887733 1.284340647857504 -1.1303111102909387 119 86 76
1.942438249545879 1.86462026834487 -1.1858848335986762 99 81 71
2.7481407575616403 0.36003810691139687 -1.4071723993631609 161 125 89
2.008967013913445 1.3222026850457196 -1.3189726144085696 139 111 93
2.150591244213829 1.8716744005740917 0.05570910904548228 181 205 232
2.894151696002628 1.0890576461705666 -0.15127799400769612 236 127 130
4.808048146069845 2.366143039351324 -0.3842690683530731 98 84 75
2.0141189813142124 2.7493247257027362 -0.9285599283963362 100 82 68
1.6258384895692122 2.1439044420722193 -1.171613454111303 153 127 104
2.442071937862082 1.4589694217353053 -0.17161053027071965 151 137 188
2.334336464614709 1.5614212232043436 -0.3369549500091527 176 188 220
1.377896268787558 1.2487992740328129 -1.4717941535209316 132 99 79
2.33287749715448 1.5294695158026959 0.7535023995736658 207 207 211
1.6170679130619876 1.8185857520583113 -1.2615265971436118 190 157 120
1.3978273153921659 2.426438946211545 -1.1464720817145542 145 114 85
2.150721666687112 1.543254712508553 0.44652200549794896 135 162 192
1.0203844038861971 2.464758838794922 -1.2182901334511158 115 91 65
2.7630223307335022 3.4056099255990855 -0.5759364280853093 137 112 92
4.205179154773831 1.1029429690335675 -0.8813949598353933 105 83 66
2.854659057789851 3.285207504359956 -0.5801778452413868 100 85 82
2.1112987155799203 1.0028194709034313 -1.3911997082829588 120 97 79
2.305450169251557 1.519760243900297 -1.1877250203867395 145 106 78
1.6019517170263067 1.3498426521189577 -1.4051311414782004 128 95 72
1.324870214003952 1.5513102755104407 -1.4047000716175824 149 110 73
1.6758991287723124 1.8022009034225797 -1.259286480719745 196 167 129
2.089884574127793 2.661767466400778 -0.9321368398451648 185 147 108
2.6467157584729124 1.241361397688009 -0.11990341277490313 165 142 189
2.289030835605394 1.8097542378638887 0.8554806222798528 96 141 196
0.9247131750568736 3.370176134445336 -0.9774388070625021 80 61 48
2.5670007749301202 1.2303315570682107 -0.3607239446660087 223 116 136
2.0313503830367385 2.3178140263609595 -1.0300817693398663 89 62 54
1.9497011096898487 0.8989454514738359 -1.444644710891933 149 123 107
2.818388816982873 1.3576477872009576 0.015091744272012831 169 162 201
1.3795492530653 2.406973805430034 -1.1509450136991677 55 38 30
2.465142904331828 0.6018035147757745 -1.412269580708884 106 83 65
3.7695170448524578 -0.3088216227659719 -1.4307281606931879 105 89 74
4.063799944664406 0.4181736071743459 -1.115809164140684 98 80 64
1.5903523604495762 2.1764010266733496 -1.1673109452291455 54 46 36
2.410893619902059 1.4862173915347363 -0.2105982091774799 157 156 198
1.7925961396690486 2.0128618370493583 -1.1710925811897401 175 145 119
4.454508321904016 1.8295351568007423 -0.6179262716645979 180 154 131
1.930214672581282 2.44817325546119 -1.0224529007426042 180 144 108
1.8997683811189185 1.8022406991863518 -1.2129593372651797 147 125 98
2.2533281373014837 3.407467258755337 -0.713706844771671 107 87 76
2.318302419393253 0.7016703157592605 -1.4071110890892988 123 88 68
5.237250709578491 0.8446520923627437 -0.7285082605636297 136 116 101
3.7900010472610255 2.1692794879825508 -0.6681267576746656 128 100 87
1.6627836503783884 1.5735068390867508 -1.3223742580872335 118 79 50
2.8880030065989306 3.3072298047682915 -0.5811845000792609 99 80 71
1.9329756591852376 1.7362439469427322 -1.221805022925578 160 132 111
2.253143305995024 0.6203375332842473 -1.4541592379670847 110 90 65
1.5906667713519513 0.9861414957437528 -1.5050972820080162 149 120 96
1.2353588637113964 1.7258342923194425 -1.3744961419420143 144 105 66
3.354204601806171 1.1340672723150251 -1.0662359611492713 142 113 95
3.0995130370289035 3.0593226824015147 -0.5899429109254917 95 76 62
2.761047797427158 1.3096484975090792 -0.006744986332310675 150 126 178
2.301669194707539 1.786157774251328 -0.570565631141581 178 178 212
2.735508707801595 0.7191762248732082 -1.3226903409504946 157 129 107
3.5327903018519295 3.4308237510081634 -0.41278367118241543 85 74 69
1.569715698543567 1.7393150166439917 -1.2993617076345976 88 63 42
1.7758971209615888 1.0265163741383176 -1.4507925944640383 140 110 86
1.8944500720291981 1.7438618223913371 -1.2280493009771911 115 96 89
3.0677062769950116 5.197373013285485 -0.15942319370380403 106 101 98
14.402836871572559 10.833136865851278 9.193804734835592 188 193 196
2.2696433773383298 1.6514129660176635 -0.27932412607839496 132 167 202
2.221488602244758 1.7742175563509177 -0.39293417122852237 207 223 246
1.5486999792356417 1.465457521712885 -1.3718326313303864 206 172 134
1.9788583398141766 1.1526026977982387 -1.3690899027848242 189 154 126
3.7196900653198415 3.5714802170780953 -0.30421563389688916 120 105 89
2.2399674456439307 0.7421518269835184 -1.4234227605323655 72 56 45
1.9714228327310912 2.331733483170744 -1.0197523331812859 151 124 106
2.1587468844029902 1.798088384850197 0.17229815488794673 168 206 242
1.8364448573451437 1.615445567425693 -1.2733729601636936 125 103 92
1.736401047645632 1.3667654928148585 -1.3639784218080346 168 142 113
1.8642753660713933 0.608995178526637 -1.5474960702243366 141 113 89
2.061900046475653 0.8943551427617754 -1.416869849080997 186 150 117
1.621157313020951 1.1492505188160365 -1.4536732106661094 171 137 109
2.274591390246623 1.5341151160356705 -1.1988217055878239 150 123 112
2.1528258975451893 1.8884514679003799 0.6393932248009044 156 161 165
2.536734643269598 1.2734014794458406 -0.3276918716086245 162 123 169
1.9656726282295935 1.171940815338508 -1.366957300953758 186 152 122
4.089510396110594 0.7603771675846803 -1.0104030617512556 126 105 87
1.659730683735815 1.4186650007598691 -1.36636665007633 111 78 67
2.1807474719829503 1.7151393097855923 0.16062911828243634 128 184 235
1.8128443418829274 1.5691752822768432 -1.2952824772925287 163 136 110
1.6877924442542156 2.325373871468477 -1.1094016510017828 192 161 128
4.777775433414979 1.6401945157999887 -0.6025654042182469 171 141 117
3.028926668516165 3.6705853943116544 -0.3990491148018752 91 78 66
1.5001884274464394 1.9910573579015869 -1.2448309148711938 161 131 105
2.3657253600395602 2.8848428071211294 -0.8058098207889782 137 117 95
1.8950963278930324 1.0113508990454585 -1.4270970265599048 165 135 109
1.9539980224784788 2.0088070783238985 -1.1398918450794013 65 51 47
2.0693682304786845 2.1144856480821437 -1.0921822476775138 89 70 68
7.007785892758708 3.2527638221731228 0.34943990316670226 103 97 97
1.861886195648886 1.8485019306082813 -1.2096835409566202 178 148 122
2.254400273445005 1.7175460943013223 -1.144147533642028 151 123 111
2.5074620787170603 1.3331265138745643 -0.6167233752341212 197 172 205
2.771762007935556 3.307840652695973 -0.5991493492169034 80 62 56
1.4465440822454607 3.354166169304035 -0.8660280133482973 76 59 42
2.085258798397641 0.2995168586991488 -1.5845835923217348 95 74 52
1.062290904947967 1.5708381997066532 -1.4573344901018161 116 84 59
1.4554341330872413 2.1013776188832827 -1.2221522056125824 102 80 66
1.5579871449495322 1.2504835267005125 -1.4320685313086698 101 77 68
2.326728731715379 1.6272296222764422 -0.5522159385468661 106 93 146
3.720787534560373 0.46110497356731556 -1.191187120681257 138 115 101
2.4753587088581046 0.6196631350804478 -1.4032693302363555 132 106 89
1.9444474645029557 1.9232753521691701 -1.171088160448126 134 110 95
4.060489769725202 1.3503551388141595 -0.8643878379320781 173 143 117
1.0094374677142535 2.527971227527458 -1.1978787843282714 97 79 59
3.4672129009741353 0.454379697241316 -1.2278164036578452 81 60 45
2.3057185405608625 2.2594197159959353 -0.9959707151434124 146 111 92
2.48928742849643 3.258426179674446 -0.6737070876450504 122 99 84
2.698697747189081 1.2865146150467035 -0.035461850424539344 168 149 194
2.858816911636016 2.609874310156668 -0.7854248001100366 132 114 101
2.452886714158493 2.840148376906589 -0.8027230419365665 152 125 105
2.022517267805078 1.5972156934496546 0.5310158734944359 71 72 89
2.6211958891529643 1.3576619217104127 -1.1707608617751815 120 87 72
2.1225339813166286 2.437457719820266 -0.989571594881275 168 132 106
2.1832657349474056 1.7505761149830121 0.05452302035828953 188 213 244
2.5596768795575056 2.2207908848490687 -0.9570974701292638 111 86 86
2.040233071027926 1.7381026392672316 -1.1978756537848085 169 141 119
1.9705917771183954 1.3771532582457793 -1.3126434795079875 154 122 99
2.012149316875687 1.620389950099679 -1.2324671463549284 187 160 136
2.27279345862237 1.6500477588232279 -0.32487758673470324 176 192 220
1.8399095695039596 1.0252838769096817 -1.4372793384776175 146 120 97
2.775949434065826 0.3424828779048654 -1.4170290431655863 88 70 61
2.525244828902076 2.7799823900253156 -0.8000818031028696 131 112 95
1.705691349931674 1.1496048686231297 -1.4318312604057748 84 56 42
26.616362543470927 -1.2512578720596241 8.13334935773616 130 131 125
2.6289680463324556 0.9741096286347137 -1.2795710353949894 157 117 92
1.8434464861290791 2.1803658365216645 -1.1168527416545364 185 150 118
3.626316999976301 1.237389120443538 -0.9709593183094731 143 108 86
1.8106699074112023 1.5965369342009914 -1.2845606068974387 172 142 113
2.0769126380769403 3.0124754766336093 -0.8367411517593607 104 82 69
2.7665215657562103 1.5045935547398825 -1.1015199951621344 134 102 91
2.0748116461429817 1.5554225292010655 0.5534624109948543 77 74 80
1.6879218797464708 0.9304420791261293 -1.4940260448203568 132 95 69
2.3300438065142046 2.164699068688307 -1.0051123617436803 109 84 78
2.212336714921862 2.9199558418323033 -0.8086708408634506 120 101 86
2.869473200896927 0.24878483212944721 -1.4201871118729397 141 114 97
1.731830491286674 1.9630424346424866 -1.1985392331721048 153 113 80
1.6485857551983025 1.4889886160445263 -1.3480366215207942 164 134 107
3.958065475195421 1.198896933853693 -0.9089198688257936 179 149 121
3.3709799243326772 1.0356795132653756 -1.0914821789951457 133 97 74
4.282428844072545 0.57057120422172 -1.0012211246839242 125 102 80
2.9971156529691427 0.711357052289565 -1.2685779462296196 100 77 71
2.7180357698155544 3.2102344704836163 -0.6289055166232561 111 97 90
2.2540857766142413 3.471214658915372 -0.6795646104907203 165 138 109
2.262021111111168 1.6638720588813072 -0.2970574509536209 181 195 212
2.150787170916995 1.9055976583143035 0.08071522820114473 117 165 215
1.3559048084032899 2.13739501197768 -1.2346364319994174 95 78 62
1.3737929400341793 3.105211393637826 -0.9781620002327729 137 107 83
2.3581140124746938 1.7091608342988067 -1.1321801246706038 141 113 101
1.9008063628992813 0.5559073573335412 -1.5532918178298114 139 114 90
2.0695318575355564 1.8880099173409108 -1.1444298081608384 167 136 115
2.0570347052289484 2.7426937223070094 -0.9103138344145338 170 142 117
2.1922920205073195 2.30787600970269 -0.9977732443610562 142 120 104
2.0862277794552493 1.2446494991187287 -1.3210135807440595 125 96 77
4.562046194803639 3.1973552677669974 -0.23791720569949548 131 117 104
1.996069715641733 2.6807885154788966 -0.935545817939902 157 123 96
31.720452215252173 -2.4373703763273613 4.765431526179062 171 169 157
1.9180588082395307 1.8411683854334893 -1.2007650320378287 165 132 115
1.9300383475551834 1.645741901679888 0.7333596348220761 154 198 239
2.9089173670520383 1.1238492229086952 -1.1733040539337696 160 130 119
2.416095246545332 1.4496109311292056 -0.27245846554052805 113 100 156
2.1429462809448903 0.7869671104328293 -1.4263384245646809 187 144 112
2.585730417473453 2.0401945351911794 -0.9848487514188965 86 71 78
1.955027344063846 1.9480228350542186 -1.156778299251502 116 90 71
1.734658638557301 1.7797317791864657 -1.2497014354248313 175 150 117
1.8907561605359249 1.117913421357787 -1.3998661016333749 154 116 91
2.175288009057267 2.2881960851253274 -1.03496035692019 100 80 73
1.844830897316307 1.9286764892153847 -1.1811808885694328 87 68 61
1.9697806205579251 1.5761149069437146 0.7264005603342261 107 160 214
1.8784004605923554 0.5401578003906697 -1.5626138566982868 138 107 85
1.530410268543007 1.265287448684589 -1.4361976663481932 86 57 48
1.8723948950339864 0.9858164944424239 -1.4438090619021315 168 131 102
3.595201968628119 0.5919971693967634 -1.1679473394758706 95 81 70
2.464402305669913 1.4685338274861408 -0.12772903019205448 158 148 201
2.240065984678517 1.686740059465733 0.08123149980471825 89 133 200
1.2954542820838149 1.6852731778686394 -1.3728091155994824 157 118 85
2.6372302751248435 0.7547093622712964 -1.3339757137019728 140 113 92
5.14745627245662 1.4985605354554952 -0.561037265718383 140 117 98
3.475105836695245 3.222022125420085 -0.46377998291712724 86 72 60
2.142277591606183 0.604557602407577 -1.4746738833989232 178 143 114
1.4833435019587504 3.317322333155056 -0.8621443603856104 77 58 43
2.2697861201359086 1.9036681114275018 -1.0976556283131405 125 96 88
2.523528942103797 1.7974876160176692 -0.9359552802059942 155 143 160
2.0144427695113745 2.122584590472553 -1.098752669320038 141 115 98
2.6061069872418794 0.39323020896080807 -1.4281329741924698 173 133 97
3.111845263298768 3.030871530997893 -0.6113491162161463 137 112 92
5.579300892748244 1.5861006098944608 -0.43088681228130193 90 80 71
2.5968996874644774 2.22474423848119 -0.9476349682470571 130 100 92
1.3262724035042688 2.4369944710257476 -1.1615853093362882 87 69 47
1.7188346891430393 1.0263796360072517 -1.4609895880159938 143 119 95
1.9338498277811014 0.9619422914515778 -1.4313619361992405 88 68 54
1.880660485299567 1.6142224295786436 -1.2664676862442483 88 66 51
1.6354972602422562 2.367952549580069 -1.1114096273410392 186 152 119
3.0408263646294182 0.821204059541443 -1.2233150631425724 139 112 93
3.8035874853957274 0.27333851309353546 -1.1948785982762367 78 59 48
2.702434809676762 1.1389991678650362 -1.2201459728135073 159 126 109
4.443729116909951 0.4846628920041658 -0.9986991217827839 117 92 69
2.519586154316241 0.8257941093534856 -1.3441429590584237 136 108 87
1.8971717801198653 1.8294958088371218 -1.2092999926804129 159 116 86
4.918856339583748 0.9203112898422409 -0.7824210018827115 85 67 54
2.6825280676323047 0.8553017657069709 -1.2932075825233207 82 64 55
2.0696816838477874 1.326812437620908 -1.3081967319535102 124 104 87
1.9015614545531283 1.724590015060402 -1.2379372301060614 145 116 107
2.318422388480172 1.6455827350049572 0.0346202481300788 155 198 245
2.5552056152042115 1.0205996709323626 -1.2837645345927942 146 112 87
1.0639038470744002 3.3201414251415735 -0.9594529684854435 132 108 81
2.2451148662671496 2.6441546566340612 -0.8960124671163493 163 136 115
2.4806328080782514 1.6258549798071906 -1.1234430635711579 121 89 68
2.0204800445531403 1.6754548844428743 0.7741068504364121 89 152 223
2.325069551607824 1.5845149241746006 0.25668004054454807 92 134 199
2.227561199064103 0.4515643540494354 -1.5057812163712394 103 80 57
1.7018112719447902 1.4959366030285408 -1.3328742209232696 105 82 67
4.0159726757454495 0.7861392074657908 -1.0104308725740838 80 63 52
2.371428798060058 1.666058438746845 -1.1361543904053337 111 81 74
2.1674172158610467 1.694656615043249 0.21523680660155828 141 192 239
3.0651336834047425 0.49301738266898776 -1.3131126512459983 87 70 59
2.066341918448607 0.9995038521831525 -1.4021766796306971 152 121 101
2.1839472934967397 1.7732739754483444 -0.18740442134023758 180 201 228
1.9233100618086871 1.6722420240444844 0.6894510613621145 108 109 122
2.0071930986409745 0.8525269722759907 -1.4490339235142766 156 128 104
4.584650688011478 0.4627082785602654 -0.9867561152384966 93 77 58
2.1763663142100858 1.75805984643172 -1.1474536134799855 137 115 104
1.4321381680657521 1.8361325244267597 -1.3007317828933789 108 80 59
3.9503887710569994 0.4328998904341227 -1.1310364078140218 133 112 97
2.358465586512976 0.7022570846870739 -1.4084358180247862 142 114 95
1.763632450149519 2.2343972822789584 -1.1166197138263267 187 152 125
1.7181696074866784 1.4491853239170627 -1.345233315481731 165 139 114
1.695424182363505 1.953230167782252 -1.2129894316382683 167 140 110
3.0223864977755226 0.4933300957707078 -1.3151546272439822 167 128 97
3.6214127237016003 3.152352623757859 -0.45774432455497793 132 112 95
3.2512305334050637 0.41673938710745906 -1.2927934937496723 101 81 72
1.7532246235580995 1.2137867236583917 -1.4089475649927916 150 115 92
5.162478145764057 1.9651887013278633 -0.4059659362605703 107 96 92
2.4910035370127757 3.1877672249315148 -0.6860901858161056 156 121 91
2.061898555530779 3.2508642363130424 -0.7610101445045291 161 130 109
2.615856826759899 1.5527192989482865 0.03424440803279022 160 180 207
1.9208057709813753 1.9989581381106252 -1.1506475669385994 180 139 117
2.3675897274846354 1.6959294516802652 -1.1360732238983509 131 96 85
2.2366968478273415 1.6774003278586553 -0.24728668256807085 145 175 211
2.2076619163803146 1.6189786361575467 -1.1892462527503431 148 115 103
1.9902494932305812 2.0773149065123966 -1.1122267487461062 177 150 120
3.7251526555404744 1.1029492876808946 -0.988004231191467 138 111 94
2.835092401920343 1.08959018172981 -1.197349120330864 125 84 62
2.372470884092662 0.6557071916081628 -1.4099047301111192 176 135 105
2.628948145525428 1.2664265597967748 -1.1898633236709473 167 136 116
2.3026079267054036 2.122143357126607 -1.0292542845138004 116 87 78
1.7333707614398937 1.7291863430875927 -1.2644671914597239 136 99 79
2.581537817246491 0.8344213640304734 -1.324449571875005 144 116 94
1.577657866866488 2.315350139492068 -1.1373101020914282 133 101 77
1.7859309265058396 1.812209136589446 -1.226907233056579 186 153 122
3.6428192782029716 0.3734836014018045 -1.2184699903853704 138 116 101
2.539182105063096 1.8109201410933777 -1.0615311609719273 144 117 107
2.419131199936779 2.0939106094457864 -1.0099051100667735 113 89 81
1.9541834651259091 1.9979338697270113 -1.1380262873471545 99 82 75
2.590154813162056 1.5482731398257004 -0.861590946570139 61 49 71
2.271912778546463 1.7067826627990648 -0.5052720228113936 214 223 241
1.8199961130389517 1.0357166396223174 -1.4364064999227808 193 162 125
1.9697657358638212 2.0216546339183217 -1.1311070265278762 134 100 78
1.8021074275100974 1.2229777077494863 -1.390131796540112 81 62 42
1.961374688162143 1.3967572091937848 -1.304543415544875 132 101 81
1.9929459890971981 3.565140312799287 -0.7276563187929971 103 87 71
2.9732921549268663 3.3608311845391454 -0.5459687441243101 142 117 94
1.8851393660969298 0.17389170937029522 -1.6535218869884731 121 95 71
14.335022573493577 2.627643049580844 0.3081198175995964 123 119 125
3.6329398087287887 1.6186730739709019 -0.8583133113427883 95 75 68
1.638664622736412 1.1975983843401365 -1.431772971012375 204 172 133
1.6975611331416356 2.1234809612966634 -1.1626917289201102 178 144 116
3.893803623247021 3.4097942621526296 -0.40320109311896857 137 118 103
3.3155614481683178 0.7486697404889737 -1.1886652718804063 121 103 91
3.3368835252979134 0.5381825991043998 -1.2405559433739755 85 62 48
2.074896526099351 2.170765936055672 -1.0756850744376691 149 114 106
2.676681117379073 1.201402013121482 -1.202420296974078 158 129 108
2.389745719712283 1.522046357594292 -0.2110264805370189 193 209 225
3.854076799805812 1.0830370746271285 -0.9684921640892913 89 68 60
2.2190097092384704 1.9403192783813972 0.42116408880452516 145 181 216
1.6059927941823025 1.0547670102458675 -1.4757596590106026 155 111 86
1.9988475912596892 1.457784857171353 -1.2798259229373858 164 122 90
2.139529242398894 1.675929459960579 0.2980704577780381 102 158 226
2.0656098553576707 3.0138349303347223 -0.8310977396510988 101 80 65
1.6889902868533888 1.2321535292344494 -1.4153297648470202 152 128 104
4.133311041838236 1.2011701554685223 -0.870306122134329 178 146 123
1.55365402758316 0.9407285522990269 -1.4834196463146978 126 107 91
2.6254413696811167 1.4973723519455564 0.011717085322610277 148 140 190
3.0811350339512393 0.9365810394212462 -1.179463232582719 148 117 97
3.6702057758763513 1.314355206280607 -0.9474372116173234 179 145 117
2.7150307030227436 -0.28226300613163846 -1.5982542481058875 94 81 65
2.638954397583666 1.2406459066342086 -1.1947737494327708 126 99 84
2.027881717492828 1.0290402292410428 -1.3931211251147222 106 84 61
2.45908565722993 3.446479607307533 -0.6287522089785791 156 128 104
1.9823829217737592 1.3154076389069715 -1.3243224891306566 147 120 94
3.986296386014739 1.1105569869705745 -0.9258294719924379 154 124 102
2.201471651090612 2.6735258926772247 -0.903084064189311 176 149 120
1.7073964154088086 1.2971862513303978 -1.39322529154754 145 119 101
3.8743864904933925 30.969320339849986 6.392402181483096 103 103 106
2.418867583273645 1.5086082826742462 -0.15772245671039345 182 197 216
1.3214192120679338 2.1264088127023584 -1.2494900237843756 156 125 97
1.3812173396378808 2.4112640244847436 -1.1542915023329137 55 38 30
2.1291500157108643 1.8601896428397084 0.2914662135879954 133 169 211
1.5829436259201735 1.7145422710859488 -1.3006637498740412 151 112 73
1.8799169513903824 1.4049122016719002 -1.3249721006473307 189 155 127
2.222493812052258 1.7307279638599111 -1.1542482011294437 174 141 124
2.766718908933467 3.3407395959385306 -0.5905405495684563 130 108 87
2.479463655604805 1.5235041259058666 -0.05363604596753704 148 182 221
2.2717942312205985 1.1815352523721874 -1.2986846593886598 131 105 83
2.6097353915139525 3.306384353993253 -0.6335102363701665 141 115 98
2.4080821849664833 1.493823414049635 -0.1949164890235452 146 151 192
1.9001718058330537 1.5646267203019315 -1.2691931376980186 182 148 120
2.573004409738387 -0.21753047351451044 -1.598560602537892 133 112 89
2.818450239267778 1.0341220099552524 -0.5174609373484396 204 189 186
1.5216658385493218 0.8190858877603868 -1.5566360471490064 165 134 107
2.9928361388128497 3.3259199256007443 -0.5470015340960606 96 79 69
2.287883390036508 1.7102706923172553 -0.516659641341319 210 220 234
4.510619278988651 3.233459038985737 -0.2484891876099184 133 120 104
1.7925882304740546 1.2330208029315781 -1.3872745953728407 139 114 94
2.285134088526822 1.666287883356898 -0.4311909441377935 179 203 230
2.0335312909060033 2.1264251956378177 -1.0945101886578916 129 109 98
2.7592011195831336 1.0841189043522763 -0.6711056096028847 234 93 102
3.819178832211957 0.4031360533474382 -1.1740654307204272 109 81 59
5.021583621976513 1.3430348688225173 -0.6301349063055701 158 133 112
2.1295185527159903 2.1948785316741795 -1.0563945962884245 77 56 54
2.1435023483658626 1.223343037613857 -1.31746392683426 119 93 75
2.161313260636453 1.9541745121478782 0.45870668300855966 169 187 212
2.231186027880623 1.9889255350174238 -0.4390024039432522 155 173 205
2.119845603547903 1.5225553971674526 0.7302795484289252 147 194 235
2.2190464867447703 1.696425469920447 0.8690668792682738 94 152 220
2.862635885453155 3.302203024144783 -0.5876247565974129 135 113 93
2.790813730909885 1.058863624571987 -0.45619144114092514 251 140 136
2.4186522637138252 1.6256999344108396 0.13163927218296048 155 186 214
2.6061069872418794 0.39323020896080807 -1.4281329741924698 173 133 97
2.03601454844846 1.572209540147699 0.5528104125815876 223 225 222
1.7748846940985066 1.4359733924279394 -1.341092887188569 74 57 51
5.972764608490132 1.7153228140939256 -0.3128607708300185 88 81 75
4.360239178319589 0.5489481043071379 -1.0067944205879766 124 99 76
2.7841345198320857 1.0651467905711491 -0.6569002512996687 233 164 150
1.9854367719067718 1.0833090756236863 -1.3844259171881024 169 138 111
1.0607877158702512 1.6597695600828002 -1.4315638286906234 141 104 68
2.024249153971536 2.2335531770020434 -1.0667818942062095 168 131 104
4.99872334742077 0.8587772003101629 -0.7624504095964997 69 55 46
4.5888085368774325 2.3077356333396435 -0.4389490496102256 157 134 120
2.074303343469503 2.15387421614818 -1.065422309291393 100 79 76
3.9454394212578494 0.6671885874347909 -1.0818930065400914 131 105 80
2.2599309848078155 0.7168791552340511 -1.4215896980077578 160 119 89
3.0618292917032393 5.335804378024961 -0.14751328218944323 84 78 80
2.4033224787957757 0.4811832337881831 -1.4485681940656898 94 65 53
3.1886732701061162 0.8195260184362166 -1.1892926342311407 121 95 82
1.6616988469198875 1.2061340637043878 -1.4218989591477111 100 83 68
1.9616270728573277 1.8801467338988231 -1.1703671422236352 103 81 67
3.0625664017434446 0.9025959301543602 -1.1992913837634351 151 127 113
-0.4943198153524257 35.229722347858385 7.389992377035358 115 121 121
2.3960552243054525 2.034463807218463 -1.037958479159207 108 87 81
3.3310190825853248 3.5211556723797566 -0.4231380178225142 91 78 69
1.4976101286021222 1.7281225148328774 -1.313116886470241 86 64 47
3.2483014444530585 3.0587308269574507 -0.5631136916925047 127 108 94
2.5259976545809 3.3949509803503526 -0.6294702200298163 67 61 66
1.7375185863818698 1.386619156243353 -1.3625358004843997 149 117 96
1.958633426103706 1.0954302106847817 -1.3885723067767533 130 104 81
1.3715409070883295 2.610155771768811 -1.1038788775189148 151 120 91
1.9591125877020783 1.6401113601930453 0.7195821241746181 161 206 247
1.4992261706517354 1.731577547396463 -1.3146507244372256 108 81 62
2.3520265219074803 2.211278586389928 -0.9989902912814403 158 122 110
1.8715535333676003 0.5682160976635638 -1.5486653660304788 131 109 86
2.3140828489013576 1.876501436656357 -1.1004265178891386 173 149 130
2.5185227930514347 3.3223181348433672 -0.6455196164261696 143 119 94
2.1801976764448994 1.2238185292889894 -1.3048979082728973 188 155 130
1.7840196696311286 1.3808991777841668 -1.3538853687295098 91 63 50
5.028254016169277 0.20569542311106626 -1.3087216712304448 99 86 78
1.578217436803967 1.5871285453426554 -1.3327457036902675 144 104 78
2.5395650467389737 1.2717442277976279 -0.297850024272533 145 117 178
1.8090721842124613 1.2859616397489086 -1.370169097975176 157 122 97
2.1218979821854833 2.247426514483342 -1.0367956852815314 130 108 98
2.096227261236247 2.2020751113818973 -1.0595364026414202 80 61 59
1.8331850567745354 1.2249560254651928 -1.3825016887810777 105 81 72
2.521533169716085 3.3868579385656465 -0.6251904985908799 67 61 66
1.8779350496682459 1.5030903821347628 -1.2940613180021434 127 99 81
1.3380578727287875 3.0331068121367872 -1.0011271784427673 144 108 77
2.3658237573636924 1.6794764474631219 -1.137530802683918 161 114 103
1.8981513093920004 2.7996125608968185 -0.9177408073608933 175 135 100
1.9428002758841467 1.4842303635364553 -1.2857126968541592 134 99 80
1.707837885841437 1.7841644647034411 -1.2531182289301586 183 157 125
1.2285023527868784 2.449038922858584 -1.176249600173271 90 67 44
2.414408308574769 0.8611786174291273 -1.353936061029502 149 121 98
2.761047797427158 1.3096484975090792 -0.006744986332310675 150 126 178
1.8760062007646596 1.6528053645381569 -1.2618141287759086 81 62 53
2.090453097028583 2.1616167388275804 -1.0753726679749598 93 70 63
2.257286142424264 1.663834802401768 -0.2950475818695267 187 202 221
1.9241082880013411 2.151601409066377 -1.1065773779899086 100 82 69
4.452442273677138 0.6304743678145561 -1.1810477834359872 112 93 86
1.5403985530165838 0.9873295317877296 -1.514103646042552 110 93 83
2.468925963580131 1.6779380828802821 -1.1148246305783711 128 99 85
1.5789911985496132 0.9699056173904939 -1.509868095414482 125 100 85
2.128800607700902 1.8536114450655432 0.3258945116313136 130 162 203
4.33442663717631 0.9199258208094936 -0.9127556568450077 172 140 115
2.708568454379154 1.2097237250076038 -1.1989790928751998 111 80 70
2.332705745839522 1.5552393245497333 -0.3630336830977691 197 201 238
4.138552950132356 0.9496455096314546 -0.9366838081607257 115 89 71
1.4241581988547023 1.566573812244476 -1.3789555734970986 166 137 112
2.0648057834665634 2.728769896220234 -0.9243672037153975 183 154 122
2.2932685763696323 2.9047318531862936 -0.813054193644468 97 79 69
2.0405899817854163 1.8118609327793904 0.6238796090955383 66 71 90
2.5864363365297907 1.2652859157735274 -1.2020762016465982 136 108 92
2.5223163958983634 1.5388943238456982 -0.015174553450091294 181 198 221
2.2228162770600886 2.0288736907174796 0.11958559516420954 120 158 203
1.7259205422729826 1.0168465543246632 -1.4602565755396215 101 79 57
1.9909517935252612 1.0314114552112494 -1.3980817293979257 142 114 93
4.30274041310783 1.0988375913012502 -0.8507244716288196 94 70 57
2.093787114903156 2.2180307848923375 -1.0580194348094265 149 118 100
2.1788572854794017 1.806152717480439 -1.1465736976947016 162 122 113
1.8260278516940063 2.6748258453665184 -0.9631228479001093 154 124 100
1.6926062569054108 2.7100502279465712 -0.9963620473132748 151 121 93
2.3408504418189056 1.598046880528042 -1.1703637095158468 165 137 116
3.171521973790987 3.327755214390066 -0.5106945014533517 143 118 96
2.318486035046719 1.5693981233250889 -0.36401931728761144 183 181 221
1.8915359742736177 0.9451182911803739 -1.4445973104581091 77 53 42
2.856861765438843 1.2480258872648746 -1.1502576095036579 75 56 52
2.481035605583101 0.4461014256156262 -1.4386597601177742 72 45 33
2.3407966918187464 1.532953187912295 -1.1831973252272339 146 117 101
4.700676329698523 1.710301453591777 -0.6034546644245716 137 116 99
3.0343516363823415 0.6897196979712078 -1.2639025306453757 102 76 63
2.0887494017519104 1.5679743062021312 -1.2331712113016777 186 162 136
5.065253642509811 1.5158210341750729 -0.5576815942686242 146 120 99
2.131464513183144 1.8621457447386847 0.30597800461962404 135 170 212
1.7228597791827438 1.3055919647946173 -1.3885486624536008 188 154 117
2.582336039198915 1.2549938927341535 -0.22398984654317317 195 180 213
2.196132574365656 1.0291765330064564 -1.3534382779566259 134 100 79
2.155825867138487 1.9306268556908435 0.16836429565600258 164 189 220
2.1542255640749017 1.855303005855955 0.3047944018553036 151 183 221
